201.2175484230592 ,201.2175484230592 ,200.64204056120434,200.64204056120434,200.64204056120434,200.64204056120434,200.5869387446438 ,200.5869387446438 ,200.5869387446438 ,200.5869387446438 ,200.90938641192417,200.90938641192417,201.3461193283672 ,201.3461193283672 ,201.62775083523235,201.62775083523235,201.73591366033273,201.73591366033273,202.0481572875093 ,202.0481572875093 ,202.50121666811842,202.50121666811842,203.10937745830546,203.10937745830546,204.056312379939  ,204.056312379939  ,204.39712731940622,204.39712731940622,204.7563095310603 ,204.7563095310603 ,205.20732810364868,205.20732810364868,205.65834667623704,205.65834667623704,206.23793615413342,206.23793615413342,206.82364805609208,206.82364805609208,207.27670743670123,207.27670743670123,207.49507389492274,207.49507389492274,207.51140035908884,207.51140035908884,207.40527834200924,207.40527834200924,207.02976966618905,207.02976966618905,206.42773130006427,206.42773130006427,205.86446828633402,205.86446828633402,205.55222465915745,205.55222465915745,205.33998062499822,205.33998062499822,205.13998143896353,205.13998143896353,204.86039074011916,204.86039074011916,204.48080044825744,204.48080044825744,204.50733095252735,204.50733095252735,204.76651357116413,204.76651357116413,205.14610386302581,205.14610386302581,205.59916324363496,205.59916324363496,205.92773333497763,205.92773333497763,206.207324033822  ,206.207324033822  ,206.4318129161058 ,206.4318129161058 ,206.55834301339303,206.55834301339303,206.5665062454761 ,206.5665062454761 ,206.69915876682563,206.69915876682563,206.99099431379454,206.99099431379454,207.4216048061753 ,207.4216048061753 ,207.7379300493934 ,207.7379300493934 ,208.0440512525077 ,208.0440512525077 ,208.42160073634864,208.42160073634864,208.84608880466712,208.84608880466712,209.1583324318437 ,209.1583324318437 ,209.2971073772555 ,209.2971073772555 ,209.35016838579529,209.35016838579529,209.33180111360844,209.33180111360844,209.25425040881947,209.25425040881947,209.21139344038352,209.21139344038352,209.12159788746996,209.12159788746996,209.03588395059796,209.03588395059796,208.958333245809  ,208.958333245809  ,208.75221163571206,208.75221163571206,208.15017326958733,208.15017326958733,207.05630017045894,207.05630017045894,205.5971224356142 ,205.5971224356142 ,204.0705980360843 ,204.0705980360843 ,202.45835969968243,202.45835969968243,201.4440781133638 ,201.4440781133638 ,200.75836661838778,200.75836661838778,200.10530805174398,200.10530805174398,199.44816786905866,199.44816786905866,198.79919091845636,198.79919091845636,198.1604180079579 ,198.1604180079579 ,197.5400123696463 ,197.5400123696463 ,196.9665453158122 ,196.9665453158122 ,196.54613886353525,196.54613886353525,196.19511988396422,196.19511988396422,195.91552918511982,195.91552918511982,195.72777484720976,195.72777484720976,195.95838615355584,195.95838615355584,195.74818292741736,195.74818292741736,195.74818292741736,195.74818292741736,195.733897271272  ,195.733897271272  ,195.99512069792954
201.2175484230592 ,201.2175484230592 ,200.64204056120434,200.64204056120434,200.64204056120434,200.64204056120434,200.5869387446438 ,200.5869387446438 ,200.5869387446438 ,200.5869387446438 ,200.90938641192417,200.90938641192417,201.3461193283672 ,201.3461193283672 ,201.62775083523235,201.62775083523235,201.73591366033273,201.73591366033273,202.0481572875093 ,202.0481572875093 ,202.50121666811842,202.50121666811842,203.10937745830546,203.10937745830546,204.056312379939  ,204.056312379939  ,204.39712731940622,204.39712731940622,204.7563095310603 ,204.7563095310603 ,205.20732810364868,205.20732810364868,205.65834667623704,205.65834667623704,206.23793615413342,206.23793615413342,206.82364805609208,206.82364805609208,207.27670743670123,207.27670743670123,207.49507389492274,207.49507389492274,207.51140035908884,207.51140035908884,207.40527834200924,207.40527834200924,207.02976966618905,207.02976966618905,206.42773130006427,206.42773130006427,205.86446828633402,205.86446828633402,205.55222465915745,205.55222465915745,205.33998062499822,205.33998062499822,205.13998143896353,205.13998143896353,204.86039074011916,204.86039074011916,204.48080044825744,204.48080044825744,204.50733095252735,204.50733095252735,204.76651357116413,204.76651357116413,205.14610386302581,205.14610386302581,205.59916324363496,205.59916324363496,205.92773333497763,205.92773333497763,206.207324033822  ,206.207324033822  ,206.4318129161058 ,206.4318129161058 ,206.55834301339303,206.55834301339303,206.5665062454761 ,206.5665062454761 ,206.69915876682563,206.69915876682563,206.99099431379454,206.99099431379454,207.4216048061753 ,207.4216048061753 ,207.7379300493934 ,207.7379300493934 ,208.0440512525077 ,208.0440512525077 ,208.42160073634864,208.42160073634864,208.84608880466712,208.84608880466712,209.1583324318437 ,209.1583324318437 ,209.2971073772555 ,209.2971073772555 ,209.35016838579529,209.35016838579529,209.33180111360844,209.33180111360844,209.25425040881947,209.25425040881947,209.21139344038352,209.21139344038352,209.12159788746996,209.12159788746996,209.03588395059796,209.03588395059796,208.958333245809  ,208.958333245809  ,208.75221163571206,208.75221163571206,208.15017326958733,208.15017326958733,207.05630017045894,207.05630017045894,205.5971224356142 ,205.5971224356142 ,204.0705980360843 ,204.0705980360843 ,202.45835969968243,202.45835969968243,201.4440781133638 ,201.4440781133638 ,200.75836661838778,200.75836661838778,200.10530805174398,200.10530805174398,199.44816786905866,199.44816786905866,198.79919091845636,198.79919091845636,198.1604180079579 ,198.1604180079579 ,197.5400123696463 ,197.5400123696463 ,196.9665453158122 ,196.9665453158122 ,196.54613886353525,196.54613886353525,196.19511988396422,196.19511988396422,195.91552918511982,195.91552918511982,195.72777484720976,195.72777484720976,195.95838615355584,195.95838615355584,195.74818292741736,195.74818292741736,195.74818292741736,195.74818292741736,195.733897271272  ,195.733897271272  ,195.99512069792954
201.1216304460834 ,201.1216304460834 ,201.11754883004187,201.11754883004187,201.08081428566817,201.08081428566817,200.5869387446438 ,200.5869387446438 ,200.5869387446438 ,200.5869387446438 ,200.90938641192417,200.90938641192417,201.38081306472014,201.38081306472014,201.73387285231195,201.73387285231195,201.9889738549072 ,201.9889738549072 ,202.1644833446927 ,202.1644833446927 ,202.49917586009767,202.49917586009767,203.10937745830546,203.10937745830546,203.9685576350462 ,203.9685576350462 ,204.4787596402367 ,204.4787596402367 ,204.9440638689704 ,204.9440638689704 ,205.42161294582868,205.42161294582868,205.92161091091532,205.92161091091532,206.58895513370447,206.58895513370447,207.20936077201608,207.20936077201608,207.63588964835532,207.63588964835532,207.76650136168408,207.76650136168408,207.72568520126885,207.72568520126885,207.6379304563761 ,207.6379304563761 ,207.3909926858639 ,207.3909926858639 ,206.9665046175454 ,206.9665046175454 ,206.4440577642304 ,206.4440577642304 ,206.15222221726142,206.15222221726142,205.97671272747593,205.97671272747593,205.7746727334205 ,205.7746727334205 ,205.39100082551727,205.39100082551727,205.04202265396697,205.04202265396697,205.0991652785483 ,205.0991652785483 ,205.4032456736418 ,205.4032456736418 ,205.81957050987722,205.81957050987722,206.11548767288772,206.11548767288772,206.378751907566  ,206.378751907566  ,206.5767102855799 ,206.5767102855799 ,206.69915876682563,206.69915876682563,206.73793411922009,206.73793411922009,206.89303552879798,206.89303552879798,207.1705854196216 ,207.1705854196216 ,207.5460940954418 ,207.5460940954418 ,207.97058216376027,207.97058216376027,208.1991526620856 ,208.1991526620856 ,208.49506982509607,208.49506982509607,208.872619308937  ,208.872619308937  ,209.2522096007987 ,209.2522096007987 ,209.37873969808598,209.37873969808598,209.49098413922786,209.49098413922786,209.53384110766387,209.53384110766387,209.53792272370538,209.53792272370538,209.54608595578844,209.54608595578844,209.5420043397469 ,209.5420043397469 ,209.5766980760999 ,209.5766980760999 ,209.5971061563075 ,209.5971061563075 ,209.56037161193376,209.56037161193376,209.41343343443893,209.41343343443893,208.59711022613416,208.59711022613416,207.4828290467982 ,207.4828290467982 ,206.08691636059706,206.08691636059706,204.29712772638888,204.29712772638888,202.56856333280356,202.56856333280356,201.4808126577375 ,201.4808126577375 ,200.75428500234625,200.75428500234625,200.08898158757788,200.08898158757788,199.38490282041502,199.38490282041502,198.7706196061657 ,198.7706196061657 ,198.2032749763939 ,198.2032749763939 ,197.6685832749543 ,197.6685832749543 ,197.17266692590914,197.17266692590914,196.63797522446953,196.63797522446953,196.37471098979125,196.37471098979125,196.1726709957358 ,196.1726709957358 ,195.71552999908516,195.71552999908516,195.95838615355584,195.95838615355584,195.74818292741736,195.74818292741736,195.74818292741736,195.74818292741736,195.67471383866993,195.67471383866993,195.682877070753
201.1216304460834 ,201.1216304460834 ,201.11754883004187,201.11754883004187,201.08081428566817,201.08081428566817,200.5869387446438 ,200.5869387446438 ,200.5869387446438 ,200.5869387446438 ,200.90938641192417,200.90938641192417,201.38081306472014,201.38081306472014,201.73387285231195,201.73387285231195,201.9889738549072 ,201.9889738549072 ,202.1644833446927 ,202.1644833446927 ,202.49917586009767,202.49917586009767,203.10937745830546,203.10937745830546,203.9685576350462 ,203.9685576350462 ,204.4787596402367 ,204.4787596402367 ,204.9440638689704 ,204.9440638689704 ,205.42161294582868,205.42161294582868,205.92161091091532,205.92161091091532,206.58895513370447,206.58895513370447,207.20936077201608,207.20936077201608,207.63588964835532,207.63588964835532,207.76650136168408,207.76650136168408,207.72568520126885,207.72568520126885,207.6379304563761 ,207.6379304563761 ,207.3909926858639 ,207.3909926858639 ,206.9665046175454 ,206.9665046175454 ,206.4440577642304 ,206.4440577642304 ,206.15222221726142,206.15222221726142,205.97671272747593,205.97671272747593,205.7746727334205 ,205.7746727334205 ,205.39100082551727,205.39100082551727,205.04202265396697,205.04202265396697,205.0991652785483 ,205.0991652785483 ,205.4032456736418 ,205.4032456736418 ,205.81957050987722,205.81957050987722,206.11548767288772,206.11548767288772,206.378751907566  ,206.378751907566  ,206.5767102855799 ,206.5767102855799 ,206.69915876682563,206.69915876682563,206.73793411922009,206.73793411922009,206.89303552879798,206.89303552879798,207.1705854196216 ,207.1705854196216 ,207.5460940954418 ,207.5460940954418 ,207.97058216376027,207.97058216376027,208.1991526620856 ,208.1991526620856 ,208.49506982509607,208.49506982509607,208.872619308937  ,208.872619308937  ,209.2522096007987 ,209.2522096007987 ,209.37873969808598,209.37873969808598,209.49098413922786,209.49098413922786,209.53384110766387,209.53384110766387,209.53792272370538,209.53792272370538,209.54608595578844,209.54608595578844,209.5420043397469 ,209.5420043397469 ,209.5766980760999 ,209.5766980760999 ,209.5971061563075 ,209.5971061563075 ,209.56037161193376,209.56037161193376,209.41343343443893,209.41343343443893,208.59711022613416,208.59711022613416,207.4828290467982 ,207.4828290467982 ,206.08691636059706,206.08691636059706,204.29712772638888,204.29712772638888,202.56856333280356,202.56856333280356,201.4808126577375 ,201.4808126577375 ,200.75428500234625,200.75428500234625,200.08898158757788,200.08898158757788,199.38490282041502,199.38490282041502,198.7706196061657 ,198.7706196061657 ,198.2032749763939 ,198.2032749763939 ,197.6685832749543 ,197.6685832749543 ,197.17266692590914,197.17266692590914,196.63797522446953,196.63797522446953,196.37471098979125,196.37471098979125,196.1726709957358 ,196.1726709957358 ,195.71552999908516,195.71552999908516,195.95838615355584,195.95838615355584,195.74818292741736,195.74818292741736,195.74818292741736,195.74818292741736,195.67471383866993,195.67471383866993,195.682877070753
201.16652822254017,201.16652822254017,201.14612014233253,201.14612014233253,200.68897914568186,200.68897914568186,200.7522441943255 ,200.7522441943255 ,200.7522441943255 ,200.7522441943255 ,201.1257120621249 ,201.1257120621249 ,201.4971391219036 ,201.4971391219036 ,201.9461168864712 ,201.9461168864712 ,202.05223890355083,202.05223890355083,202.14203445646433,202.14203445646433,202.41142111520492,202.41142111520492,202.95427604872756,202.95427604872756,203.69917097630565,203.69917097630565,204.31753580659648,204.31753580659648,204.93998225292887,204.93998225292887,205.57263273936508,205.57263273936508,206.18487514559362,206.18487514559362,206.83589290421665,206.83589290421665,207.39711510992618,207.39711510992618,207.7399708574142 ,207.7399708574142 ,207.793031865954  ,207.793031865954  ,207.76241974564257,207.76241974564257,207.69507308095743,207.69507308095743,207.49507389492274,207.49507389492274,207.17874865170467,207.17874865170467,206.8991579528603 ,206.8991579528603 ,206.7440565432824 ,206.7440565432824 ,206.5665062454761 ,206.5665062454761 ,206.31140524288085,206.31140524288085,205.94610060716448,205.94610060716448,205.607326475718  ,205.607326475718  ,205.70120364467306,205.70120364467306,206.0195696959119 ,206.0195696959119 ,206.3950783717321 ,206.3950783717321 ,206.5991591738083 ,206.5991591738083 ,206.82160724807133,206.82160724807133,206.98079027369076,206.98079027369076,207.07262663462504,207.07262663462504,207.1216060271233 ,207.1216060271233 ,207.33385006128256,207.33385006128256,207.6379304563761 ,207.6379304563761 ,208.04201044448692,208.04201044448692,208.5154779053037 ,208.5154779053037 ,208.7542524437328 ,208.7542524437328 ,209.0032310222658 ,209.0032310222658 ,209.2522096007987 ,209.2522096007987 ,209.45833121089566,209.45833121089566,209.50731060339393,209.50731060339393,209.6113918124528 ,209.6113918124528 ,209.70935059744937,209.70935059744937,209.78894211025911,209.78894211025911,209.85016635088195,209.85016635088195,209.9930229123353 ,209.9930229123353 ,210.12363462566407,210.12363462566407,210.21751179461907,210.21751179461907,210.1807772502454 ,210.1807772502454 ,209.55628999589223,209.55628999589223,208.58894699405113,208.58894699405113,207.4236456141961 ,207.4236456141961 ,206.05018181622333,206.05018181622333,204.38080085524012,204.38080085524012,202.6910118140493 ,202.6910118140493 ,201.56448578658873,201.56448578658873,200.79101954671995,200.79101954671995,200.13796098007617,200.13796098007617,199.49102483749465,199.49102483749465,198.90735374355674,198.90735374355674,198.36245800201334,198.36245800201334,197.84205195671905,197.84205195671905,197.3522580317362 ,197.3522580317362 ,196.82368875435887,196.82368875435887,196.49920027905773,196.49920027905773,196.2869562448985 ,196.2869562448985 ,196.02165120219945,196.02165120219945,195.7889990878326 ,195.7889990878326 ,195.7298156552305 ,195.7298156552305 ,195.7298156552305 ,195.7298156552305 ,195.72369323116823,195.72369323116823,195.63185687023395
201.16652822254017,201.16652822254017,201.14612014233253,201.14612014233253,200.68897914568186,200.68897914568186,200.7522441943255 ,200.7522441943255 ,200.7522441943255 ,200.7522441943255 ,201.1257120621249 ,201.1257120621249 ,201.4971391219036 ,201.4971391219036 ,201.9461168864712 ,201.9461168864712 ,202.05223890355083,202.05223890355083,202.14203445646433,202.14203445646433,202.41142111520492,202.41142111520492,202.95427604872756,202.95427604872756,203.69917097630565,203.69917097630565,204.31753580659648,204.31753580659648,204.93998225292887,204.93998225292887,205.57263273936508,205.57263273936508,206.18487514559362,206.18487514559362,206.83589290421665,206.83589290421665,207.39711510992618,207.39711510992618,207.7399708574142 ,207.7399708574142 ,207.793031865954  ,207.793031865954  ,207.76241974564257,207.76241974564257,207.69507308095743,207.69507308095743,207.49507389492274,207.49507389492274,207.17874865170467,207.17874865170467,206.8991579528603 ,206.8991579528603 ,206.7440565432824 ,206.7440565432824 ,206.5665062454761 ,206.5665062454761 ,206.31140524288085,206.31140524288085,205.94610060716448,205.94610060716448,205.607326475718  ,205.607326475718  ,205.70120364467306,205.70120364467306,206.0195696959119 ,206.0195696959119 ,206.3950783717321 ,206.3950783717321 ,206.5991591738083 ,206.5991591738083 ,206.82160724807133,206.82160724807133,206.98079027369076,206.98079027369076,207.07262663462504,207.07262663462504,207.1216060271233 ,207.1216060271233 ,207.33385006128256,207.33385006128256,207.6379304563761 ,207.6379304563761 ,208.04201044448692,208.04201044448692,208.5154779053037 ,208.5154779053037 ,208.7542524437328 ,208.7542524437328 ,209.0032310222658 ,209.0032310222658 ,209.2522096007987 ,209.2522096007987 ,209.45833121089566,209.45833121089566,209.50731060339393,209.50731060339393,209.6113918124528 ,209.6113918124528 ,209.70935059744937,209.70935059744937,209.78894211025911,209.78894211025911,209.85016635088195,209.85016635088195,209.9930229123353 ,209.9930229123353 ,210.12363462566407,210.12363462566407,210.21751179461907,210.21751179461907,210.1807772502454 ,210.1807772502454 ,209.55628999589223,209.55628999589223,208.58894699405113,208.58894699405113,207.4236456141961 ,207.4236456141961 ,206.05018181622333,206.05018181622333,204.38080085524012,204.38080085524012,202.6910118140493 ,202.6910118140493 ,201.56448578658873,201.56448578658873,200.79101954671995,200.79101954671995,200.13796098007617,200.13796098007617,199.49102483749465,199.49102483749465,198.90735374355674,198.90735374355674,198.36245800201334,198.36245800201334,197.84205195671905,197.84205195671905,197.3522580317362 ,197.3522580317362 ,196.82368875435887,196.82368875435887,196.49920027905773,196.49920027905773,196.2869562448985 ,196.2869562448985 ,196.02165120219945,196.02165120219945,195.7889990878326 ,195.7889990878326 ,195.7298156552305 ,195.7298156552305 ,195.7298156552305 ,195.7298156552305 ,195.72369323116823,195.72369323116823,195.63185687023395
201.19714034285158,201.19714034285158,201.18285468670626,201.18285468670626,200.68897914568186,200.68897914568186,200.7522441943255 ,200.7522441943255 ,200.7522441943255 ,200.7522441943255 ,201.1257120621249 ,201.1257120621249 ,201.67673022773062,201.67673022773062,202.09713668000757,202.09713668000757,202.09305506396603,202.09305506396603,202.14407526448508,202.14407526448508,202.38080899489347,202.38080899489347,202.86243968779326,202.86243968779326,203.56039603089386,203.56039603089386,204.30937257451345,204.30937257451345,205.05426750209153,205.05426750209153,205.78079515748277,205.78079515748277,206.47058826850028,206.47058826850028,207.07466744264582,207.07466744264582,207.54813490346257,207.54813490346257,207.80323590605778,207.80323590605778,207.80527671407856,207.80527671407856,207.79507267397474,207.79507267397474,207.7440524734557 ,207.7440524734557 ,207.58486944783627,207.58486944783627,207.36446218159398,207.36446218159398,207.26038097253513,207.26038097253513,207.2399728923275 ,207.2399728923275 ,207.1011979469157 ,207.1011979469157 ,206.85630098442428,206.85630098442428,206.55426139735152,206.55426139735152,206.23793615413342,206.23793615413342,206.35222140329608,206.35222140329608,206.63793452620274,206.63793452620274,206.92364764910943,206.92364764910943,207.08691229077039,207.08691229077039,207.2991563249296 ,207.2991563249296 ,207.4440536944037 ,207.4440536944037 ,207.5236452072134 ,207.5236452072134 ,207.5889510638778 ,207.5889510638778 ,207.8236439862654 ,207.8236439862654 ,208.10731630115131,208.10731630115131,208.48690659301303,208.48690659301303,208.9746597099751 ,208.9746597099751 ,209.25425040881947,209.25425040881947,209.4787392911033 ,209.4787392911033 ,209.6338407006812 ,209.6338407006812 ,209.71547302151168,209.71547302151168,209.71751382953246,209.71751382953246,209.81139099848747,209.81139099848747,209.94608432785776,209.94608432785776,210.09098169733187,210.09098169733187,210.21343017857757,210.21343017857757,210.4685311811728 ,210.4685311811728 ,210.67465279126975,210.67465279126975,210.81955016074386,210.81955016074386,210.75016268803796,210.75016268803796,209.68077928515874,209.68077928515874,208.5624164897812 ,208.5624164897812 ,207.31344198107493,207.31344198107493,205.89508040664543,205.89508040664543,204.27263803013975,204.27263803013975,202.7746849429005 ,202.7746849429005 ,201.68081184377215,201.68081184377215,200.87877429161273,200.87877429161273,200.24204218913502,200.24204218913502,199.642044631031  ,199.642044631031  ,199.08490404136302,199.08490404136302,198.54817153190265,198.54817153190265,198.02368387056686,198.02368387056686,197.5175634814179 ,197.5175634814179 ,197.00532066820668,197.00532066820668,196.62164876030346,196.62164876030346,196.38083341385354,196.38083341385354,196.26858897271165,196.26858897271165,195.8318560562686 ,195.8318560562686 ,195.7298156552305 ,195.7298156552305 ,195.7298156552305 ,195.7298156552305 ,195.72369323116823,195.72369323116823,195.61553040606782
201.19714034285158,201.19714034285158,201.18285468670626,201.18285468670626,200.68897914568186,200.68897914568186,200.7522441943255 ,200.7522441943255 ,200.7522441943255 ,200.7522441943255 ,201.1257120621249 ,201.1257120621249 ,201.67673022773062,201.67673022773062,202.09713668000757,202.09713668000757,202.09305506396603,202.09305506396603,202.14407526448508,202.14407526448508,202.38080899489347,202.38080899489347,202.86243968779326,202.86243968779326,203.56039603089386,203.56039603089386,204.30937257451345,204.30937257451345,205.05426750209153,205.05426750209153,205.78079515748277,205.78079515748277,206.47058826850028,206.47058826850028,207.07466744264582,207.07466744264582,207.54813490346257,207.54813490346257,207.80323590605778,207.80323590605778,207.80527671407856,207.80527671407856,207.79507267397474,207.79507267397474,207.7440524734557 ,207.7440524734557 ,207.58486944783627,207.58486944783627,207.36446218159398,207.36446218159398,207.26038097253513,207.26038097253513,207.2399728923275 ,207.2399728923275 ,207.1011979469157 ,207.1011979469157 ,206.85630098442428,206.85630098442428,206.55426139735152,206.55426139735152,206.23793615413342,206.23793615413342,206.35222140329608,206.35222140329608,206.63793452620274,206.63793452620274,206.92364764910943,206.92364764910943,207.08691229077039,207.08691229077039,207.2991563249296 ,207.2991563249296 ,207.4440536944037 ,207.4440536944037 ,207.5236452072134 ,207.5236452072134 ,207.5889510638778 ,207.5889510638778 ,207.8236439862654 ,207.8236439862654 ,208.10731630115131,208.10731630115131,208.48690659301303,208.48690659301303,208.9746597099751 ,208.9746597099751 ,209.25425040881947,209.25425040881947,209.4787392911033 ,209.4787392911033 ,209.6338407006812 ,209.6338407006812 ,209.71547302151168,209.71547302151168,209.71751382953246,209.71751382953246,209.81139099848747,209.81139099848747,209.94608432785776,209.94608432785776,210.09098169733187,210.09098169733187,210.21343017857757,210.21343017857757,210.4685311811728 ,210.4685311811728 ,210.67465279126975,210.67465279126975,210.81955016074386,210.81955016074386,210.75016268803796,210.75016268803796,209.68077928515874,209.68077928515874,208.5624164897812 ,208.5624164897812 ,207.31344198107493,207.31344198107493,205.89508040664543,205.89508040664543,204.27263803013975,204.27263803013975,202.7746849429005 ,202.7746849429005 ,201.68081184377215,201.68081184377215,200.87877429161273,200.87877429161273,200.24204218913502,200.24204218913502,199.642044631031  ,199.642044631031  ,199.08490404136302,199.08490404136302,198.54817153190265,198.54817153190265,198.02368387056686,198.02368387056686,197.5175634814179 ,197.5175634814179 ,197.00532066820668,197.00532066820668,196.62164876030346,196.62164876030346,196.38083341385354,196.38083341385354,196.26858897271165,196.26858897271165,195.8318560562686 ,195.8318560562686 ,195.7298156552305 ,195.7298156552305 ,195.7298156552305 ,195.7298156552305 ,195.72369323116823,195.72369323116823,195.61553040606782
201.19305872681005,201.19305872681005,201.18285468670626,201.18285468670626,200.77469308255388,200.77469308255388,200.9379577242148 ,200.9379577242148 ,200.9379577242148 ,200.9379577242148 ,201.38081306472014,201.38081306472014,201.9828514308449 ,201.9828514308449 ,202.08693263990375,202.08693263990375,202.1216263762567 ,202.1216263762567 ,202.2399932414609 ,202.2399932414609 ,202.49917586009767,202.49917586009767,202.95631685674832,202.95631685674832,203.7705992570323 ,203.7705992570323 ,204.71957498668658,204.71957498668658,205.49508203457611,205.49508203457611,206.13181413705382,206.13181413705382,206.81140320796752,206.81140320796752,207.3195644051372 ,207.3195644051372 ,207.66446096064598,207.66446096064598,207.83180721834844,207.83180721834844,207.8460928744938 ,207.8460928744938 ,207.85425610657683,207.85425610657683,207.8073175220993 ,207.8073175220993 ,207.70323631304046,207.70323631304046,207.56037975158713,207.56037975158713,207.4277272302376 ,207.4277272302376 ,207.51140035908884,207.51140035908884,207.5195635911719 ,207.5195635911719 ,207.43589046232066,207.43589046232066,207.2889522848258 ,207.2889522848258 ,207.021606434106  ,207.021606434106  ,207.11140198701952,207.11140198701952,207.26242178055588,207.26242178055588,207.35017652544866,207.35017652544866,207.59303267991933,207.59303267991933,207.85833772261836,207.85833772261836,208.03588802042464,208.03588802042464,208.13180599740045,208.13180599740045,208.20731589416866,208.20731589416866,208.40527427218257,208.40527427218257,208.57670214592653,208.57670214592653,208.82976234050102,208.82976234050102,209.23588313663262,209.23588313663262,209.601187772349  ,209.601187772349  ,209.86037039098576,209.86037039098576,210.0358798807713 ,210.0358798807713 ,210.13383866576788,210.13383866576788,210.14608351389242,210.14608351389242,210.21343017857757,210.21343017857757,210.33791946784407,210.33791946784407,210.5073065335673 ,210.5073065335673 ,210.7052649115812 ,210.7052649115812 ,210.97056995428022,210.97056995428022,211.21546691677167,211.21546691677167,211.358323478225  ,211.358323478225  ,211.19505883656407,211.19505883656407,209.87261523911036,209.87261523911036,208.59711022613416,208.59711022613416,207.18487107576695,207.18487107576695,205.57671435540658,205.57671435540658,203.7501911768247 ,203.7501911768247 ,202.76856251883825,202.76856251883825,201.86244375761996,201.86244375761996,201.0767326696266 ,201.0767326696266 ,200.45632703131503,200.45632703131503,199.8583702812318 ,199.8583702812318 ,199.31551534770912,199.31551534770912,198.77266041418648,198.77266041418648,198.2134790164977 ,198.2134790164977 ,197.64817519474667,197.64817519474667,197.15838126976382,197.15838126976382,196.75021966561144,196.75021966561144,196.45634331062172,196.45634331062172,196.3073643251061 ,196.3073643251061 ,195.94001888136899,195.94001888136899,195.76450939158346,195.76450939158346,195.69308111085678,195.69308111085678,195.63185687023395,195.63185687023395,195.62777525419241
201.19305872681005,201.19305872681005,201.18285468670626,201.18285468670626,200.77469308255388,200.77469308255388,200.9379577242148 ,200.9379577242148 ,200.9379577242148 ,200.9379577242148 ,201.38081306472014,201.38081306472014,201.9828514308449 ,201.9828514308449 ,202.08693263990375,202.08693263990375,202.1216263762567 ,202.1216263762567 ,202.2399932414609 ,202.2399932414609 ,202.49917586009767,202.49917586009767,202.95631685674832,202.95631685674832,203.7705992570323 ,203.7705992570323 ,204.71957498668658,204.71957498668658,205.49508203457611,205.49508203457611,206.13181413705382,206.13181413705382,206.81140320796752,206.81140320796752,207.3195644051372 ,207.3195644051372 ,207.66446096064598,207.66446096064598,207.83180721834844,207.83180721834844,207.8460928744938 ,207.8460928744938 ,207.85425610657683,207.85425610657683,207.8073175220993 ,207.8073175220993 ,207.70323631304046,207.70323631304046,207.56037975158713,207.56037975158713,207.4277272302376 ,207.4277272302376 ,207.51140035908884,207.51140035908884,207.5195635911719 ,207.5195635911719 ,207.43589046232066,207.43589046232066,207.2889522848258 ,207.2889522848258 ,207.021606434106  ,207.021606434106  ,207.11140198701952,207.11140198701952,207.26242178055588,207.26242178055588,207.35017652544866,207.35017652544866,207.59303267991933,207.59303267991933,207.85833772261836,207.85833772261836,208.03588802042464,208.03588802042464,208.13180599740045,208.13180599740045,208.20731589416866,208.20731589416866,208.40527427218257,208.40527427218257,208.57670214592653,208.57670214592653,208.82976234050102,208.82976234050102,209.23588313663262,209.23588313663262,209.601187772349  ,209.601187772349  ,209.86037039098576,209.86037039098576,210.0358798807713 ,210.0358798807713 ,210.13383866576788,210.13383866576788,210.14608351389242,210.14608351389242,210.21343017857757,210.21343017857757,210.33791946784407,210.33791946784407,210.5073065335673 ,210.5073065335673 ,210.7052649115812 ,210.7052649115812 ,210.97056995428022,210.97056995428022,211.21546691677167,211.21546691677167,211.358323478225  ,211.358323478225  ,211.19505883656407,211.19505883656407,209.87261523911036,209.87261523911036,208.59711022613416,208.59711022613416,207.18487107576695,207.18487107576695,205.57671435540658,205.57671435540658,203.7501911768247 ,203.7501911768247 ,202.76856251883825,202.76856251883825,201.86244375761996,201.86244375761996,201.0767326696266 ,201.0767326696266 ,200.45632703131503,200.45632703131503,199.8583702812318 ,199.8583702812318 ,199.31551534770912,199.31551534770912,198.77266041418648,198.77266041418648,198.2134790164977 ,198.2134790164977 ,197.64817519474667,197.64817519474667,197.15838126976382,197.15838126976382,196.75021966561144,196.75021966561144,196.45634331062172,196.45634331062172,196.3073643251061 ,196.3073643251061 ,195.94001888136899,195.94001888136899,195.76450939158346,195.76450939158346,195.69308111085678,195.69308111085678,195.63185687023395,195.63185687023395,195.62777525419241
201.13387529420797,201.13387529420797,201.1216304460834 ,201.1216304460834 ,200.77469308255388,200.77469308255388,200.9379577242148 ,200.9379577242148 ,200.9379577242148 ,200.9379577242148 ,201.38081306472014,201.38081306472014,202.10529991209063,202.10529991209063,202.1338712243813 ,202.1338712243813 ,202.41346192322567,202.41346192322567,202.72366474238146,202.72366474238146,203.19713220319824,203.19713220319824,203.89508854629878,203.89508854629878,204.77263599522638,204.77263599522638,205.6991628366523 ,205.6991628366523 ,206.40120079579438,206.40120079579438,206.89099472077723,206.89099472077723,207.2889522848258 ,207.2889522848258 ,207.63180803231378,207.63180803231378,207.85833772261836,207.85833772261836,208.0011942840717 ,208.0011942840717 ,208.09303064500597,208.09303064500597,208.15017326958733,208.15017326958733,208.09915306906828,208.09915306906828,207.97670458782255,207.97670458782255,207.82160317824466,207.82160317824466,207.71956277720656,207.71956277720656,207.8399704504315 ,207.8399704504315 ,207.94609246751114,207.94609246751114,207.99507186000943,207.99507186000943,207.95425569959417,207.95425569959417,207.76854216970486,207.76854216970486,207.82568479428616,207.82568479428616,208.0277247883416 ,208.0277247883416 ,208.3011930631237 ,208.3011930631237 ,208.5950694181134 ,208.5950694181134 ,208.67670173894388,208.67670173894388,208.7828237560235 ,208.7828237560235 ,208.958333245809  ,208.958333245809  ,209.18282212809282,209.18282212809282,209.3236378815254 ,209.3236378815254 ,209.27669929704788,209.27669929704788,209.3134338414216 ,209.3134338414216 ,209.64200393276425,209.64200393276425,210.0032269524391 ,210.0032269524391 ,210.28077684326274,210.28077684326274,210.4868984533597 ,210.4868984533597 ,210.60934693460538,210.60934693460538,210.61138774262614,210.61138774262614,210.66240794314518,210.66240794314518,210.78893804043244,210.78893804043244,210.98077399438404,210.98077399438404,211.21546691677167,211.21546691677167,211.4909759995745 ,211.4909759995745 ,211.74403619414898,211.74403619414898,211.79709720268878,211.79709720268878,211.4379149910347 ,211.4379149910347 ,210.09506331337337,210.09506331337337,208.70323224321376,208.70323224321376,207.17466703566313,207.17466703566313,205.51140849874218,205.51140849874218,203.76039521692852,203.76039521692852,202.85835807175175,202.85835807175175,201.999177895011  ,201.999177895011  ,201.25632377545367,201.25632377545367,200.69714237776492,200.69714237776492,200.11143047580626,200.11143047580626,199.55633069415904,199.55633069415904,198.99714929647027,198.99714929647027,198.41960062659464,198.41960062659464,197.82980710859448,197.82980710859448,197.35633964777773,197.35633964777773,196.9298107714385 ,196.9298107714385 ,196.58491421592973,196.58491421592973,196.37471098979125,196.37471098979125,196.1257324112583 ,196.1257324112583 ,195.86042736855927,195.86042736855927,195.68899949481525,195.68899949481525,195.63185687023395,195.63185687023395,195.63185687023395
201.13387529420797,201.13387529420797,201.1216304460834 ,201.1216304460834 ,200.77469308255388,200.77469308255388,200.9379577242148 ,200.9379577242148 ,200.9379577242148 ,200.9379577242148 ,201.38081306472014,201.38081306472014,202.10529991209063,202.10529991209063,202.1338712243813 ,202.1338712243813 ,202.41346192322567,202.41346192322567,202.72366474238146,202.72366474238146,203.19713220319824,203.19713220319824,203.89508854629878,203.89508854629878,204.77263599522638,204.77263599522638,205.6991628366523 ,205.6991628366523 ,206.40120079579438,206.40120079579438,206.89099472077723,206.89099472077723,207.2889522848258 ,207.2889522848258 ,207.63180803231378,207.63180803231378,207.85833772261836,207.85833772261836,208.0011942840717 ,208.0011942840717 ,208.09303064500597,208.09303064500597,208.15017326958733,208.15017326958733,208.09915306906828,208.09915306906828,207.97670458782255,207.97670458782255,207.82160317824466,207.82160317824466,207.71956277720656,207.71956277720656,207.8399704504315 ,207.8399704504315 ,207.94609246751114,207.94609246751114,207.99507186000943,207.99507186000943,207.95425569959417,207.95425569959417,207.76854216970486,207.76854216970486,207.82568479428616,207.82568479428616,208.0277247883416 ,208.0277247883416 ,208.3011930631237 ,208.3011930631237 ,208.5950694181134 ,208.5950694181134 ,208.67670173894388,208.67670173894388,208.7828237560235 ,208.7828237560235 ,208.958333245809  ,208.958333245809  ,209.18282212809282,209.18282212809282,209.3236378815254 ,209.3236378815254 ,209.27669929704788,209.27669929704788,209.3134338414216 ,209.3134338414216 ,209.64200393276425,209.64200393276425,210.0032269524391 ,210.0032269524391 ,210.28077684326274,210.28077684326274,210.4868984533597 ,210.4868984533597 ,210.60934693460538,210.60934693460538,210.61138774262614,210.61138774262614,210.66240794314518,210.66240794314518,210.78893804043244,210.78893804043244,210.98077399438404,210.98077399438404,211.21546691677167,211.21546691677167,211.4909759995745 ,211.4909759995745 ,211.74403619414898,211.74403619414898,211.79709720268878,211.79709720268878,211.4379149910347 ,211.4379149910347 ,210.09506331337337,210.09506331337337,208.70323224321376,208.70323224321376,207.17466703566313,207.17466703566313,205.51140849874218,205.51140849874218,203.76039521692852,203.76039521692852,202.85835807175175,202.85835807175175,201.999177895011  ,201.999177895011  ,201.25632377545367,201.25632377545367,200.69714237776492,200.69714237776492,200.11143047580626,200.11143047580626,199.55633069415904,199.55633069415904,198.99714929647027,198.99714929647027,198.41960062659464,198.41960062659464,197.82980710859448,197.82980710859448,197.35633964777773,197.35633964777773,196.9298107714385 ,196.9298107714385 ,196.58491421592973,196.58491421592973,196.37471098979125,196.37471098979125,196.1257324112583 ,196.1257324112583 ,195.86042736855927,195.86042736855927,195.68899949481525,195.68899949481525,195.63185687023395,195.63185687023395,195.63185687023395
201.05632458941903,201.05632458941903,201.0399981252529 ,201.0399981252529 ,200.83387651515596,200.83387651515596,201.10734478993808,201.10734478993808,201.41958841711462,201.41958841711462,201.7583625485611 ,201.7583625485611 ,202.14611607250586,202.14611607250586,202.23795243344014,202.23795243344014,202.83590918352337,202.83590918352337,203.38284573308755,203.38284573308755,204.14814874087327,204.14814874087327,205.18896083146183,205.18896083146183,206.11752848090848,206.11752848090848,206.90528037692258,206.90528037692258,207.4807882387774 ,207.4807882387774 ,207.80119509803703,207.80119509803703,207.8195623702239 ,207.8195623702239 ,207.97670458782255,207.97670458782255,208.10119387708903,208.10119387708903,208.2481320545839 ,208.2481320545839 ,208.44609043259777,208.44609043259777,208.55833487373968,208.55833487373968,208.50527386519988,208.50527386519988,208.3338459914559 ,208.3338459914559 ,208.13180599740045,208.13180599740045,208.10323468510978,208.10323468510978,208.2358872064593 ,208.2358872064593 ,208.4032334641618 ,208.4032334641618 ,208.53996760155283,208.53996760155283,208.5807837619681 ,208.5807837619681 ,208.49302901707532,208.49302901707532,208.53792679353208,208.53792679353208,208.87670092497854,208.87670092497854,209.4787392911033 ,209.4787392911033 ,209.80730938244594,209.80730938244594,209.61955504453587,209.61955504453587,209.6113918124528 ,209.6113918124528 ,209.87873766317264,209.87873766317264,210.31138896357413,210.31138896357413,210.3848580523216 ,210.3848580523216 ,210.08690008129034,210.08690008129034,209.88486008723493,209.88486008723493,210.13587947378863,210.13587947378863,210.4481231009652 ,210.4481231009652 ,210.73383622387183,210.73383622387183,210.96648833823872,210.96648833823872,211.11342651573358,211.11342651573358,211.101181667609  ,211.101181667609  ,211.14607944406578,211.14607944406578,211.28077277343604,211.28077277343604,211.48893519155374,211.48893519155374,211.74199538612822,211.74199538612822,212.02566770101413,212.02566770101413,212.27260547152633,212.27260547152633,212.2032179988204 ,212.2032179988204 ,211.6256693289448 ,211.6256693289448 ,210.35424593201014,210.35424593201014,208.8522112287294 ,208.8522112287294 ,207.22568723618218,207.22568723618218,205.564469507282  ,205.564469507282  ,204.0012105633784 ,204.0012105633784 ,202.9889697850805 ,202.9889697850805 ,202.1175447602152 ,202.1175447602152 ,201.4318332652392 ,201.4318332652392 ,200.95020257233938,200.95020257233938,200.3767355185053 ,200.3767355185053 ,199.79714604060894,199.79714604060894,199.21551575469178,199.21551575469178,198.6318446607539 ,198.6318446607539 ,198.04001033473295,198.04001033473295,197.5889917621446 ,197.5889917621446 ,197.14409561361848,197.14409561361848,196.74205643352838,196.74205643352838,196.44613927051793,196.44613927051793,196.3359356373968 ,196.3359356373968 ,195.98899827386725,195.98899827386725,195.7032851509606 ,195.7032851509606 ,195.6338976782547 ,195.6338976782547 ,195.65430575846233
201.05632458941903,201.05632458941903,201.0399981252529 ,201.0399981252529 ,200.83387651515596,200.83387651515596,201.10734478993808,201.10734478993808,201.41958841711462,201.41958841711462,201.7583625485611 ,201.7583625485611 ,202.14611607250586,202.14611607250586,202.23795243344014,202.23795243344014,202.83590918352337,202.83590918352337,203.38284573308755,203.38284573308755,204.14814874087327,204.14814874087327,205.18896083146183,205.18896083146183,206.11752848090848,206.11752848090848,206.90528037692258,206.90528037692258,207.4807882387774 ,207.4807882387774 ,207.80119509803703,207.80119509803703,207.8195623702239 ,207.8195623702239 ,207.97670458782255,207.97670458782255,208.10119387708903,208.10119387708903,208.2481320545839 ,208.2481320545839 ,208.44609043259777,208.44609043259777,208.55833487373968,208.55833487373968,208.50527386519988,208.50527386519988,208.3338459914559 ,208.3338459914559 ,208.13180599740045,208.13180599740045,208.10323468510978,208.10323468510978,208.2358872064593 ,208.2358872064593 ,208.4032334641618 ,208.4032334641618 ,208.53996760155283,208.53996760155283,208.5807837619681 ,208.5807837619681 ,208.49302901707532,208.49302901707532,208.53792679353208,208.53792679353208,208.87670092497854,208.87670092497854,209.4787392911033 ,209.4787392911033 ,209.80730938244594,209.80730938244594,209.61955504453587,209.61955504453587,209.6113918124528 ,209.6113918124528 ,209.87873766317264,209.87873766317264,210.31138896357413,210.31138896357413,210.3848580523216 ,210.3848580523216 ,210.08690008129034,210.08690008129034,209.88486008723493,209.88486008723493,210.13587947378863,210.13587947378863,210.4481231009652 ,210.4481231009652 ,210.73383622387183,210.73383622387183,210.96648833823872,210.96648833823872,211.11342651573358,211.11342651573358,211.101181667609  ,211.101181667609  ,211.14607944406578,211.14607944406578,211.28077277343604,211.28077277343604,211.48893519155374,211.48893519155374,211.74199538612822,211.74199538612822,212.02566770101413,212.02566770101413,212.27260547152633,212.27260547152633,212.2032179988204 ,212.2032179988204 ,211.6256693289448 ,211.6256693289448 ,210.35424593201014,210.35424593201014,208.8522112287294 ,208.8522112287294 ,207.22568723618218,207.22568723618218,205.564469507282  ,205.564469507282  ,204.0012105633784 ,204.0012105633784 ,202.9889697850805 ,202.9889697850805 ,202.1175447602152 ,202.1175447602152 ,201.4318332652392 ,201.4318332652392 ,200.95020257233938,200.95020257233938,200.3767355185053 ,200.3767355185053 ,199.79714604060894,199.79714604060894,199.21551575469178,199.21551575469178,198.6318446607539 ,198.6318446607539 ,198.04001033473295,198.04001033473295,197.5889917621446 ,197.5889917621446 ,197.14409561361848,197.14409561361848,196.74205643352838,196.74205643352838,196.44613927051793,196.44613927051793,196.3359356373968 ,196.3359356373968 ,195.98899827386725,195.98899827386725,195.7032851509606 ,195.7032851509606 ,195.6338976782547 ,195.6338976782547 ,195.65430575846233
201.23183407920456,201.23183407920456,200.83387651515596,200.83387651515596,200.83387651515596,200.83387651515596,201.10734478993808,201.10734478993808,201.8991783019937 ,201.8991783019937 ,202.0195859752186 ,202.0195859752186 ,202.29509505802147,202.29509505802147,202.74203201456834,202.74203201456834,203.30937664434012,203.30937664434012,203.95019036285936,203.95019036285936,204.82365619574543,204.82365619574543,205.95426383924755,205.95426383924755,207.09915713889495,207.09915713889495,207.5889510638778 ,207.5889510638778 ,207.91139873115816,207.91139873115816,208.13180599740045,208.13180599740045,208.21139751021016,208.21139751021016,208.3869069999957 ,208.3869069999957 ,208.51139628926217,208.51139628926217,208.66037527477778,208.66037527477778,208.8787417329993 ,208.8787417329993 ,209.0195574864319 ,209.0195574864319 ,208.94812920570521,208.94812920570521,208.81139506831417,208.81139506831417,208.74608921164977,208.74608921164977,209.00119021424504,209.00119021424504,209.22976071257034,209.22976071257034,209.19710778423814,209.19710778423814,209.0726184949717 ,209.0726184949717 ,209.08894495913776,209.08894495913776,209.08894495913776,209.08894495913776,209.50118817933165,209.50118817933165,210.01955341660516,210.01955341660516,210.46036794908974,210.46036794908974,210.7481218800172 ,210.7481218800172 ,210.6032245105431 ,210.6032245105431 ,210.52975542179564,210.52975542179564,210.70322410356044,210.70322410356044,211.2440382290623 ,211.2440382290623 ,211.27260954135298,211.27260954135298,210.97056995428022,210.97056995428022,210.7379178399134 ,210.7379178399134 ,210.87873359334594,210.87873359334594,211.15220186812806,211.15220186812806,211.35220105416272,211.35220105416272,211.51954731186518,211.51954731186518,211.65628144925626,211.65628144925626,211.70322003373371,211.70322003373371,211.80730124279262,211.80730124279262,211.9460761882044 ,211.9460761882044 ,212.12974891007298,212.12974891007298,212.37260506454365,212.37260506454365,212.65627737942953,212.65627737942953,212.86852141358875,212.86852141358875,212.81750121306973,212.81750121306973,212.31138082392076,212.31138082392076,210.88281520938745,210.88281520938745,209.1685364719475 ,209.1685364719475 ,207.37058460565626,207.37058460565626,205.607326475718  ,205.607326475718  ,204.01549621952375,204.01549621952375,203.0583572577864 ,203.0583572577864 ,202.29101344197994,202.29101344197994,201.68081184377215,201.68081184377215,201.18489549472702,201.18489549472702,200.52367369600017,200.52367369600017,199.92979856195845,199.92979856195845,199.37878039635274,199.37878039635274,198.8522519269962 ,198.8522519269962 ,198.3461315378472 ,198.3461315378472 ,197.99307175025544,197.99307175025544,197.50940024933487,197.50940024933487,196.95021885164613,196.95021885164613,196.43389442239334,196.43389442239334,196.34409886947984,196.34409886947984,196.1910382679227 ,196.1910382679227 ,195.94818211345202,195.94818211345202,195.65430575846233,195.65430575846233,195.60328555794328
201.23183407920456,201.23183407920456,200.83387651515596,200.83387651515596,200.83387651515596,200.83387651515596,201.10734478993808,201.10734478993808,201.8991783019937 ,201.8991783019937 ,202.0195859752186 ,202.0195859752186 ,202.29509505802147,202.29509505802147,202.74203201456834,202.74203201456834,203.30937664434012,203.30937664434012,203.95019036285936,203.95019036285936,204.82365619574543,204.82365619574543,205.95426383924755,205.95426383924755,207.09915713889495,207.09915713889495,207.5889510638778 ,207.5889510638778 ,207.91139873115816,207.91139873115816,208.13180599740045,208.13180599740045,208.21139751021016,208.21139751021016,208.3869069999957 ,208.3869069999957 ,208.51139628926217,208.51139628926217,208.66037527477778,208.66037527477778,208.8787417329993 ,208.8787417329993 ,209.0195574864319 ,209.0195574864319 ,208.94812920570521,208.94812920570521,208.81139506831417,208.81139506831417,208.74608921164977,208.74608921164977,209.00119021424504,209.00119021424504,209.22976071257034,209.22976071257034,209.19710778423814,209.19710778423814,209.0726184949717 ,209.0726184949717 ,209.08894495913776,209.08894495913776,209.08894495913776,209.08894495913776,209.50118817933165,209.50118817933165,210.01955341660516,210.01955341660516,210.46036794908974,210.46036794908974,210.7481218800172 ,210.7481218800172 ,210.6032245105431 ,210.6032245105431 ,210.52975542179564,210.52975542179564,210.70322410356044,210.70322410356044,211.2440382290623 ,211.2440382290623 ,211.27260954135298,211.27260954135298,210.97056995428022,210.97056995428022,210.7379178399134 ,210.7379178399134 ,210.87873359334594,210.87873359334594,211.15220186812806,211.15220186812806,211.35220105416272,211.35220105416272,211.51954731186518,211.51954731186518,211.65628144925626,211.65628144925626,211.70322003373371,211.70322003373371,211.80730124279262,211.80730124279262,211.9460761882044 ,211.9460761882044 ,212.12974891007298,212.12974891007298,212.37260506454365,212.37260506454365,212.65627737942953,212.65627737942953,212.86852141358875,212.86852141358875,212.81750121306973,212.81750121306973,212.31138082392076,212.31138082392076,210.88281520938745,210.88281520938745,209.1685364719475 ,209.1685364719475 ,207.37058460565626,207.37058460565626,205.607326475718  ,205.607326475718  ,204.01549621952375,204.01549621952375,203.0583572577864 ,203.0583572577864 ,202.29101344197994,202.29101344197994,201.68081184377215,201.68081184377215,201.18489549472702,201.18489549472702,200.52367369600017,200.52367369600017,199.92979856195845,199.92979856195845,199.37878039635274,199.37878039635274,198.8522519269962 ,198.8522519269962 ,198.3461315378472 ,198.3461315378472 ,197.99307175025544,197.99307175025544,197.50940024933487,197.50940024933487,196.95021885164613,196.95021885164613,196.43389442239334,196.43389442239334,196.34409886947984,196.34409886947984,196.1910382679227 ,196.1910382679227 ,195.94818211345202,195.94818211345202,195.65430575846233,195.65430575846233,195.60328555794328
201.1910179187893 ,201.1910179187893 ,200.89714156379958,200.89714156379958,200.89714156379958,200.89714156379958,201.30326235993118,201.30326235993118,202.10529991209063,202.10529991209063,202.17264657677575,202.17264657677575,202.3910130349973 ,202.3910130349973 ,203.0114186733089 ,203.0114186733089 ,203.6542731998489 ,203.6542731998489 ,204.3705968151363 ,204.3705968151363 ,205.2501850720847 ,205.2501850720847 ,206.30324201079782,206.30324201079782,207.38895187784314,207.38895187784314,207.78486863387093,207.78486863387093,208.08690822094368,208.08690822094368,208.38486619197494,208.38486619197494,208.62568153842483,208.62568153842483,208.8256807244595 ,208.8256807244595 ,208.96241486185056,208.96241486185056,209.1195570794492 ,209.1195570794492 ,209.35016838579529,209.35016838579529,209.51139221943552,209.51139221943552,209.44200474672957,209.44200474672957,209.36037242589913,209.36037242589913,209.43384151464653,209.43384151464653,209.90934978348403,209.90934978348403,210.1522059379547 ,210.1522059379547 ,209.9542475599408 ,209.9542475599408 ,209.63792231672272,209.63792231672272,209.61955504453587,209.61955504453587,209.6930241332833 ,209.6930241332833 ,210.28894007534578,210.28894007534578,210.9134273296989 ,210.9134273296989 ,211.30322166166442,211.30322166166442,211.5236289279067 ,211.5236289279067 ,211.43995579905544,211.43995579905544,211.40934367874405,211.40934367874405,211.5828123605088 ,211.5828123605088 ,212.09301436569925,212.09301436569925,212.1073000218446 ,212.1073000218446 ,211.81954609091719,211.81954609091719,211.59301640061258,211.59301640061258,211.7073016497753 ,211.7073016497753 ,211.89913760372687,211.89913760372687,212.02770850903488,212.02770850903488,212.12566729403147,212.12566729403147,212.21954446298653,212.21954446298653,212.3419929442322 ,212.3419929442322 ,212.4930127377686 ,212.4930127377686 ,212.63586929922195,212.63586929922195,212.80117474890363,212.80117474890363,213.03790847931202,213.03790847931202,213.28280544180342,213.28280544180342,213.40525392304917,213.40525392304917,213.28892786586576,213.28892786586576,212.74199131630155,212.74199131630155,211.09301843552598,211.09301843552598,209.36445404194066,209.36445404194066,207.57874702377399,207.57874702377399,205.8481418221679 ,205.8481418221679 ,204.3767192391986 ,204.3767192391986 ,203.4787637100634 ,203.4787637100634 ,202.80325625519117,202.80325625519117,202.23183000937786,202.23183000937786,201.656322147523  ,201.656322147523  ,200.81959085901062,200.81959085901062,200.19918522069904,200.19918522069904,199.6869424074878 ,199.6869424074878 ,199.25020949104476,199.25020949104476,198.93388424782665,198.93388424782665,198.65021193294075,198.65021193294075,198.14613235181258,198.14613235181258,197.448176008712  ,197.448176008712  ,196.65430168863563,196.65430168863563,196.540016439473  ,196.540016439473  ,196.39103745395735,196.39103745395735,196.14409968344518,196.14409968344518,195.81144797606098,195.81144797606098,195.64614252637926
201.1910179187893 ,201.1910179187893 ,200.89714156379958,200.89714156379958,200.89714156379958,200.89714156379958,201.30326235993118,201.30326235993118,202.10529991209063,202.10529991209063,202.17264657677575,202.17264657677575,202.3910130349973 ,202.3910130349973 ,203.0114186733089 ,203.0114186733089 ,203.6542731998489 ,203.6542731998489 ,204.3705968151363 ,204.3705968151363 ,205.2501850720847 ,205.2501850720847 ,206.30324201079782,206.30324201079782,207.38895187784314,207.38895187784314,207.78486863387093,207.78486863387093,208.08690822094368,208.08690822094368,208.38486619197494,208.38486619197494,208.62568153842483,208.62568153842483,208.8256807244595 ,208.8256807244595 ,208.96241486185056,208.96241486185056,209.1195570794492 ,209.1195570794492 ,209.35016838579529,209.35016838579529,209.51139221943552,209.51139221943552,209.44200474672957,209.44200474672957,209.36037242589913,209.36037242589913,209.43384151464653,209.43384151464653,209.90934978348403,209.90934978348403,210.1522059379547 ,210.1522059379547 ,209.9542475599408 ,209.9542475599408 ,209.63792231672272,209.63792231672272,209.61955504453587,209.61955504453587,209.6930241332833 ,209.6930241332833 ,210.28894007534578,210.28894007534578,210.9134273296989 ,210.9134273296989 ,211.30322166166442,211.30322166166442,211.5236289279067 ,211.5236289279067 ,211.43995579905544,211.43995579905544,211.40934367874405,211.40934367874405,211.5828123605088 ,211.5828123605088 ,212.09301436569925,212.09301436569925,212.1073000218446 ,212.1073000218446 ,211.81954609091719,211.81954609091719,211.59301640061258,211.59301640061258,211.7073016497753 ,211.7073016497753 ,211.89913760372687,211.89913760372687,212.02770850903488,212.02770850903488,212.12566729403147,212.12566729403147,212.21954446298653,212.21954446298653,212.3419929442322 ,212.3419929442322 ,212.4930127377686 ,212.4930127377686 ,212.63586929922195,212.63586929922195,212.80117474890363,212.80117474890363,213.03790847931202,213.03790847931202,213.28280544180342,213.28280544180342,213.40525392304917,213.40525392304917,213.28892786586576,213.28892786586576,212.74199131630155,212.74199131630155,211.09301843552598,211.09301843552598,209.36445404194066,209.36445404194066,207.57874702377399,207.57874702377399,205.8481418221679 ,205.8481418221679 ,204.3767192391986 ,204.3767192391986 ,203.4787637100634 ,203.4787637100634 ,202.80325625519117,202.80325625519117,202.23183000937786,202.23183000937786,201.656322147523  ,201.656322147523  ,200.81959085901062,200.81959085901062,200.19918522069904,200.19918522069904,199.6869424074878 ,199.6869424074878 ,199.25020949104476,199.25020949104476,198.93388424782665,198.93388424782665,198.65021193294075,198.65021193294075,198.14613235181258,198.14613235181258,197.448176008712  ,197.448176008712  ,196.65430168863563,196.65430168863563,196.540016439473  ,196.540016439473  ,196.39103745395735,196.39103745395735,196.14409968344518,196.14409968344518,195.81144797606098,195.81144797606098,195.64614252637926
201.1910179187893 ,201.1910179187893 ,200.89714156379958,200.89714156379958,200.89714156379958,200.89714156379958,201.61142437106625,201.61142437106625,202.0155043591771 ,202.0155043591771 ,202.1971362730249 ,202.1971362730249 ,202.4216251553087 ,202.4216251553087 ,202.99305140112205,202.99305140112205,203.84202753775898,203.84202753775898,204.6114121615862 ,204.6114121615862 ,205.37059274530964,205.37059274530964,206.1420181771576 ,206.1420181771576 ,206.83793371223743,206.83793371223743,207.38895187784314,207.38895187784314,207.95629650761492,207.95629650761492,208.53792679353208,208.53792679353208,209.07465930299244,209.07465930299244,209.29914818527624,209.29914818527624,209.46241282693722,209.46241282693722,209.63792231672272,209.63792231672272,209.86853362306883,209.86853362306883,210.03996149681282,210.03996149681282,209.99506372035606,209.99506372035606,209.99914533639756,209.99914533639756,210.20934856253604,210.20934856253604,210.8317950088684 ,210.8317950088684 ,210.98893722646707,210.98893722646707,210.66444875116593,210.66444875116593,210.24200149086823,210.24200149086823,210.17669563420387,210.17669563420387,210.30934815555338,210.30934815555338,210.86240712917984,210.86240712917984,211.49913923165752,211.49913923165752,211.98281073257812,211.98281073257812,212.09505517372003,212.09505517372003,212.09505517372003,212.09505517372003,212.2419933512149 ,212.2419933512149 ,212.52974728214232,212.52974728214232,212.8460725253604 ,212.8460725253604 ,212.88280706973413,212.88280706973413,212.62158364307658,212.62158364307658,212.45219657735336,212.45219657735336,212.644032531305  ,212.644032531305  ,212.6970935398448 ,212.6970935398448 ,212.77464424463372,212.77464424463372,212.79709313286213,212.79709313286213,212.80729717296592,212.80729717296592,213.02770443920818,213.02770443920818,213.2154587771183 ,213.2154587771183 ,213.35627453055088,213.35627453055088,213.50933513210802,213.50933513210802,213.7440280544956 ,213.7440280544956 ,213.89912946407355,213.89912946407355,213.87055815178286,213.87055815178286,213.5889266449177 ,213.5889266449177 ,212.86443979754725,212.86443979754725,210.9134273296989 ,210.9134273296989 ,209.41751505048046,209.41751505048046,207.86854176272217,207.86854176272217,206.32773170704695,206.32773170704695,205.16038951917116,205.16038951917116,204.33182146274183,204.33182146274183,203.72570148057554,203.72570148057554,203.15019361872072,203.15019361872072,202.4175435392672 ,202.4175435392672 ,201.29713993586893,201.29713993586893,200.63183652110055,200.63183652110055,200.17061390840837,200.17061390840837,199.86653351331483,199.86653351331483,199.8624518972733 ,199.8624518972733 ,199.61959574280263,199.61959574280263,199.11347535365368,199.11347535365368,198.29919295336973,198.29919295336973,197.15838126976382,197.15838126976382,196.9665453158122 ,196.9665453158122 ,196.58287340790898,196.58287340790898,196.2767522047947 ,196.2767522047947 ,196.13389564334136,196.13389564334136,195.74614211939658
201.1910179187893 ,201.1910179187893 ,200.89714156379958,200.89714156379958,200.89714156379958,200.89714156379958,201.61142437106625,201.61142437106625,202.0155043591771 ,202.0155043591771 ,202.1971362730249 ,202.1971362730249 ,202.4216251553087 ,202.4216251553087 ,202.99305140112205,202.99305140112205,203.84202753775898,203.84202753775898,204.6114121615862 ,204.6114121615862 ,205.37059274530964,205.37059274530964,206.1420181771576 ,206.1420181771576 ,206.83793371223743,206.83793371223743,207.38895187784314,207.38895187784314,207.95629650761492,207.95629650761492,208.53792679353208,208.53792679353208,209.07465930299244,209.07465930299244,209.29914818527624,209.29914818527624,209.46241282693722,209.46241282693722,209.63792231672272,209.63792231672272,209.86853362306883,209.86853362306883,210.03996149681282,210.03996149681282,209.99506372035606,209.99506372035606,209.99914533639756,209.99914533639756,210.20934856253604,210.20934856253604,210.8317950088684 ,210.8317950088684 ,210.98893722646707,210.98893722646707,210.66444875116593,210.66444875116593,210.24200149086823,210.24200149086823,210.17669563420387,210.17669563420387,210.30934815555338,210.30934815555338,210.86240712917984,210.86240712917984,211.49913923165752,211.49913923165752,211.98281073257812,211.98281073257812,212.09505517372003,212.09505517372003,212.09505517372003,212.09505517372003,212.2419933512149 ,212.2419933512149 ,212.52974728214232,212.52974728214232,212.8460725253604 ,212.8460725253604 ,212.88280706973413,212.88280706973413,212.62158364307658,212.62158364307658,212.45219657735336,212.45219657735336,212.644032531305  ,212.644032531305  ,212.6970935398448 ,212.6970935398448 ,212.77464424463372,212.77464424463372,212.79709313286213,212.79709313286213,212.80729717296592,212.80729717296592,213.02770443920818,213.02770443920818,213.2154587771183 ,213.2154587771183 ,213.35627453055088,213.35627453055088,213.50933513210802,213.50933513210802,213.7440280544956 ,213.7440280544956 ,213.89912946407355,213.89912946407355,213.87055815178286,213.87055815178286,213.5889266449177 ,213.5889266449177 ,212.86443979754725,212.86443979754725,210.9134273296989 ,210.9134273296989 ,209.41751505048046,209.41751505048046,207.86854176272217,207.86854176272217,206.32773170704695,206.32773170704695,205.16038951917116,205.16038951917116,204.33182146274183,204.33182146274183,203.72570148057554,203.72570148057554,203.15019361872072,203.15019361872072,202.4175435392672 ,202.4175435392672 ,201.29713993586893,201.29713993586893,200.63183652110055,200.63183652110055,200.17061390840837,200.17061390840837,199.86653351331483,199.86653351331483,199.8624518972733 ,199.8624518972733 ,199.61959574280263,199.61959574280263,199.11347535365368,199.11347535365368,198.29919295336973,198.29919295336973,197.15838126976382,197.15838126976382,196.9665453158122 ,196.9665453158122 ,196.58287340790898,196.58287340790898,196.2767522047947 ,196.2767522047947 ,196.13389564334136,196.13389564334136,195.74614211939658
201.17265064660245,201.17265064660245,201.04407974129444,201.04407974129444,201.66448537960605,201.66448537960605,201.89509668595215,201.89509668595215,202.08897344792453,202.08897344792453,202.20734031312873,202.20734031312873,202.39305384301804,202.39305384301804,202.83794999154412,202.83794999154412,203.9093742024441 ,203.9093742024441 ,204.6930444824167 ,204.6930444824167 ,205.34406224103972,205.34406224103972,205.95426383924755,205.95426383924755,206.5603838214138 ,206.5603838214138 ,207.15425895545553,207.15425895545553,207.8460928744938 ,207.8460928744938 ,208.53996760155283,208.53996760155283,209.0338431425772 ,209.0338431425772 ,209.5318002996431 ,209.5318002996431 ,209.89914574338025,209.89914574338025,210.1807772502454 ,210.1807772502454 ,210.41751098065376,210.41751098065376,210.5828164303355 ,210.5828164303355 ,210.60526531856385,210.60526531856385,210.70322410356044,210.70322410356044,210.97261076230097,210.97261076230097,211.4807719594707 ,211.4807719594707 ,211.47873115144995,211.47873115144995,211.17873237239795,211.17873237239795,210.84403985699302,210.84403985699302,210.76444834418328,210.76444834418328,210.89710086553282,210.89710086553282,211.4603638792631 ,211.4603638792631 ,212.09505517372003,212.09505517372003,212.566481826516  ,212.566481826516  ,212.70933838796935,212.70933838796935,212.7440321243223 ,212.7440321243223 ,212.90525595796248,212.90525595796248,213.1950506969107 ,213.1950506969107 ,213.52770240429487,213.52770240429487,213.53790644439866,213.53790644439866,213.32566241023943,213.32566241023943,213.19709150493145,213.19709150493145,213.3644377626339 ,213.3644377626339 ,213.47668220377582,213.47668220377582,213.53790644439866,213.53790644439866,213.5256615962741 ,213.5256615962741 ,213.50933513210802,213.50933513210802,213.7134159341842 ,213.7134159341842 ,213.8889254239697 ,213.8889254239697 ,214.0930062260459 ,214.0930062260459 ,214.3093318762467 ,214.3093318762467 ,214.50320863821904,214.50320863821904,214.60320823123635,214.60320823123635,214.59912661519485,214.59912661519485,214.26647490781068,214.26647490781068,213.3930090749246 ,213.3930090749246 ,211.4807719594707 ,211.4807719594707 ,209.81955423057056,209.81955423057056,208.30935629520675,208.30935629520675,206.99099431379454,206.99099431379454,205.96038626330983,205.96038626330983,205.15630790312963,205.15630790312963,204.42365782367614,204.42365782367614,203.69100774422262,203.69100774422262,202.90121504018776,202.90121504018776,202.01142274313557,202.01142274313557,201.48285346575824,201.48285346575824,201.0399981252529 ,201.0399981252529 ,200.6828567216196 ,200.6828567216196 ,200.71346884193102,200.71346884193102,200.36449067038072,200.36449067038072,199.69306483155006,199.69306483155006,198.8032725344979 ,198.8032725344979 ,197.85225599682286,197.85225599682286,197.64817519474667,197.64817519474667,197.32776833548704,197.32776833548704,196.8379744105042 ,196.8379744105042 ,196.2216503882341 ,196.2216503882341 ,195.89512110491222
201.17265064660245,201.17265064660245,201.04407974129444,201.04407974129444,201.66448537960605,201.66448537960605,201.89509668595215,201.89509668595215,202.08897344792453,202.08897344792453,202.20734031312873,202.20734031312873,202.39305384301804,202.39305384301804,202.83794999154412,202.83794999154412,203.9093742024441 ,203.9093742024441 ,204.6930444824167 ,204.6930444824167 ,205.34406224103972,205.34406224103972,205.95426383924755,205.95426383924755,206.5603838214138 ,206.5603838214138 ,207.15425895545553,207.15425895545553,207.8460928744938 ,207.8460928744938 ,208.53996760155283,208.53996760155283,209.0338431425772 ,209.0338431425772 ,209.5318002996431 ,209.5318002996431 ,209.89914574338025,209.89914574338025,210.1807772502454 ,210.1807772502454 ,210.41751098065376,210.41751098065376,210.5828164303355 ,210.5828164303355 ,210.60526531856385,210.60526531856385,210.70322410356044,210.70322410356044,210.97261076230097,210.97261076230097,211.4807719594707 ,211.4807719594707 ,211.47873115144995,211.47873115144995,211.17873237239795,211.17873237239795,210.84403985699302,210.84403985699302,210.76444834418328,210.76444834418328,210.89710086553282,210.89710086553282,211.4603638792631 ,211.4603638792631 ,212.09505517372003,212.09505517372003,212.566481826516  ,212.566481826516  ,212.70933838796935,212.70933838796935,212.7440321243223 ,212.7440321243223 ,212.90525595796248,212.90525595796248,213.1950506969107 ,213.1950506969107 ,213.52770240429487,213.52770240429487,213.53790644439866,213.53790644439866,213.32566241023943,213.32566241023943,213.19709150493145,213.19709150493145,213.3644377626339 ,213.3644377626339 ,213.47668220377582,213.47668220377582,213.53790644439866,213.53790644439866,213.5256615962741 ,213.5256615962741 ,213.50933513210802,213.50933513210802,213.7134159341842 ,213.7134159341842 ,213.8889254239697 ,213.8889254239697 ,214.0930062260459 ,214.0930062260459 ,214.3093318762467 ,214.3093318762467 ,214.50320863821904,214.50320863821904,214.60320823123635,214.60320823123635,214.59912661519485,214.59912661519485,214.26647490781068,214.26647490781068,213.3930090749246 ,213.3930090749246 ,211.4807719594707 ,211.4807719594707 ,209.81955423057056,209.81955423057056,208.30935629520675,208.30935629520675,206.99099431379454,206.99099431379454,205.96038626330983,205.96038626330983,205.15630790312963,205.15630790312963,204.42365782367614,204.42365782367614,203.69100774422262,203.69100774422262,202.90121504018776,202.90121504018776,202.01142274313557,202.01142274313557,201.48285346575824,201.48285346575824,201.0399981252529 ,201.0399981252529 ,200.6828567216196 ,200.6828567216196 ,200.71346884193102,200.71346884193102,200.36449067038072,200.36449067038072,199.69306483155006,199.69306483155006,198.8032725344979 ,198.8032725344979 ,197.85225599682286,197.85225599682286,197.64817519474667,197.64817519474667,197.32776833548704,197.32776833548704,196.8379744105042 ,196.8379744105042 ,196.2216503882341 ,196.2216503882341 ,195.89512110491222
201.17265064660245,201.17265064660245,201.04407974129444,201.04407974129444,201.71346477210432,201.71346477210432,202.15836092063043,202.15836092063043,202.18897304094185,202.18897304094185,202.28080940187616,202.28080940187616,202.47672697186928,202.47672697186928,202.80121544717042,202.80121544717042,203.98080248317078,203.98080248317078,204.73590145085268,204.73590145085268,205.29508284854145,205.29508284854145,205.8052848537319 ,205.8052848537319 ,206.39303756371135,206.39303756371135,207.00323916191914,207.00323916191914,207.78282782585018,207.78282782585018,208.55425325769818,208.55425325769818,208.958333245809  ,208.958333245809  ,209.6828200931795 ,209.6828200931795 ,210.25628714701358,210.25628714701358,210.67261198324897,210.67261198324897,210.95220268209337,210.95220268209337,211.13587540396193,211.13587540396193,211.22567095687546,211.22567095687546,211.4073028707233 ,211.4073028707233 ,211.71546488185834,211.71546488185834,212.07260628549167,212.07260628549167,211.92770891601756,211.92770891601756,211.67260791342233,211.67260791342233,211.44403741509697,211.44403741509697,211.35220105416272,211.35220105416272,211.4603638792631 ,211.4603638792631 ,212.00117800476497,212.00117800476497,212.61137960297276,212.61137960297276,213.07668383170648,213.07668383170648,213.32566241023943,213.32566241023943,213.38688665086227,213.38688665086227,213.5215799802326 ,213.5215799802326 ,213.77872179084858,213.77872179084858,214.1542304666688 ,214.1542304666688 ,214.15014885062723,214.15014885062723,213.99912905709084,213.99912905709084,213.90933350417734,213.90933350417734,214.03586360146457,214.03586360146457,214.25423005968608,214.25423005968608,214.31749510832972,214.31749510832972,214.28892379603903,214.28892379603903,214.2562708677069 ,214.2562708677069 ,214.41137227728478,214.41137227728478,214.57259611092496,214.57259611092496,214.8276971135202 ,214.8276971135202 ,215.09300215621923,215.09300215621923,215.24810356579712,215.24810356579712,215.31545023048227,215.31545023048227,215.3623888149598 ,215.3623888149598 ,215.08075730809466,215.08075730809466,214.2174955153124 ,214.2174955153124 ,212.36036021641905,212.36036021641905,210.28894007534578,210.28894007534578,208.7542524437328 ,208.7542524437328 ,207.7216035852273 ,207.7216035852273 ,206.78691351171838,206.78691351171838,205.9828351515382 ,205.9828351515382 ,205.0991652785483 ,205.0991652785483 ,204.2216178296207 ,204.2216178296207 ,203.44202916568966,203.44202916568966,202.80937867925346,202.80937867925346,202.384890610935  ,202.384890610935  ,201.95632092657502,201.95632092657502,201.55224093846414,201.55224093846414,201.53795528231882,201.53795528231882,201.07877347764742,201.07877347764742,200.2318381490312 ,200.2318381490312 ,199.2706175712524 ,199.2706175712524 ,198.5665388040895 ,198.5665388040895 ,198.33592749774343,198.33592749774343,198.03592871869142,198.03592871869142,197.35838045579848,197.35838045579848,196.32164998125145,196.32164998125145,196.0563449385524
201.17265064660245,201.17265064660245,201.04407974129444,201.04407974129444,201.71346477210432,201.71346477210432,202.15836092063043,202.15836092063043,202.18897304094185,202.18897304094185,202.28080940187616,202.28080940187616,202.47672697186928,202.47672697186928,202.80121544717042,202.80121544717042,203.98080248317078,203.98080248317078,204.73590145085268,204.73590145085268,205.29508284854145,205.29508284854145,205.8052848537319 ,205.8052848537319 ,206.39303756371135,206.39303756371135,207.00323916191914,207.00323916191914,207.78282782585018,207.78282782585018,208.55425325769818,208.55425325769818,208.958333245809  ,208.958333245809  ,209.6828200931795 ,209.6828200931795 ,210.25628714701358,210.25628714701358,210.67261198324897,210.67261198324897,210.95220268209337,210.95220268209337,211.13587540396193,211.13587540396193,211.22567095687546,211.22567095687546,211.4073028707233 ,211.4073028707233 ,211.71546488185834,211.71546488185834,212.07260628549167,212.07260628549167,211.92770891601756,211.92770891601756,211.67260791342233,211.67260791342233,211.44403741509697,211.44403741509697,211.35220105416272,211.35220105416272,211.4603638792631 ,211.4603638792631 ,212.00117800476497,212.00117800476497,212.61137960297276,212.61137960297276,213.07668383170648,213.07668383170648,213.32566241023943,213.32566241023943,213.38688665086227,213.38688665086227,213.5215799802326 ,213.5215799802326 ,213.77872179084858,213.77872179084858,214.1542304666688 ,214.1542304666688 ,214.15014885062723,214.15014885062723,213.99912905709084,213.99912905709084,213.90933350417734,213.90933350417734,214.03586360146457,214.03586360146457,214.25423005968608,214.25423005968608,214.31749510832972,214.31749510832972,214.28892379603903,214.28892379603903,214.2562708677069 ,214.2562708677069 ,214.41137227728478,214.41137227728478,214.57259611092496,214.57259611092496,214.8276971135202 ,214.8276971135202 ,215.09300215621923,215.09300215621923,215.24810356579712,215.24810356579712,215.31545023048227,215.31545023048227,215.3623888149598 ,215.3623888149598 ,215.08075730809466,215.08075730809466,214.2174955153124 ,214.2174955153124 ,212.36036021641905,212.36036021641905,210.28894007534578,210.28894007534578,208.7542524437328 ,208.7542524437328 ,207.7216035852273 ,207.7216035852273 ,206.78691351171838,206.78691351171838,205.9828351515382 ,205.9828351515382 ,205.0991652785483 ,205.0991652785483 ,204.2216178296207 ,204.2216178296207 ,203.44202916568966,203.44202916568966,202.80937867925346,202.80937867925346,202.384890610935  ,202.384890610935  ,201.95632092657502,201.95632092657502,201.55224093846414,201.55224093846414,201.53795528231882,201.53795528231882,201.07877347764742,201.07877347764742,200.2318381490312 ,200.2318381490312 ,199.2706175712524 ,199.2706175712524 ,198.5665388040895 ,198.5665388040895 ,198.33592749774343,198.33592749774343,198.03592871869142,198.03592871869142,197.35838045579848,197.35838045579848,196.32164998125145,196.32164998125145,196.0563449385524
201.4481597294053 ,201.4481597294053 ,201.62571002721157,201.62571002721157,201.90121911001444,201.90121911001444,202.2195851612533 ,202.2195851612533 ,202.28489101791766,202.28489101791766,202.59509383707348,202.59509383707348,202.9950922091428 ,202.9950922091428 ,203.27060129194564,203.27060129194564,204.15835278097705,204.15835278097705,204.75835033908106,204.75835033908106,205.27467476833382,205.27467476833382,205.821611317898  ,205.821611317898  ,206.42773130006427,206.42773130006427,207.0318104742098 ,207.0318104742098 ,207.8726233787637 ,207.8726233787637 ,208.7236403234214 ,208.7236403234214 ,209.0971081912208 ,209.0971081912208 ,209.71751382953246,209.71751382953246,210.38281724430084,210.38281724430084,210.9766923783425 ,210.9766923783425 ,211.4175069108271 ,211.4175069108271 ,211.7175056898791 ,211.7175056898791 ,211.8399541711248 ,211.8399541711248 ,212.05423901330477,212.05423901330477,212.3909723367305 ,212.3909723367305 ,212.65015495536727,212.65015495536727,212.47872708162328,212.47872708162328,212.23995254319414,212.23995254319414,212.0317901250764 ,212.0317901250764 ,211.91750487591375,211.91750487591375,211.94811699622517,211.94811699622517,212.3175032479831 ,212.3175032479831 ,212.83995010129811,212.83995010129811,213.3930090749246 ,213.3930090749246 ,213.91545592823962,213.91545592823962,214.01137390521544,214.01137390521544,214.09096541802512,214.09096541802512,214.280760563956  ,214.280760563956  ,214.63382035154783,214.63382035154783,214.6970854001914 ,214.6970854001914 ,214.62565711946476,214.62565711946476,214.580759343008  ,214.580759343008  ,214.69096297612913,214.69096297612913,215.0358595316379 ,215.0358595316379 ,215.1481039727798 ,215.1481039727798 ,215.13585912465524,215.13585912465524,215.0848389241362 ,215.0848389241362 ,215.1521855888213 ,215.1521855888213 ,215.32157265454455,215.32157265454455,215.54402072880762,215.54402072880762,215.76034637900835,215.76034637900835,215.90524374848246,215.90524374848246,215.9909576853545 ,215.9909576853545 ,216.07259000618492,216.07259000618492,216.10524293451712,216.10524293451712,215.80524415546515,215.80524415546515,213.8215787592846 ,213.8215787592846 ,210.76648915220403,210.76648915220403,209.09098576715851,209.09098576715851,208.5807837619681 ,208.5807837619681 ,207.69507308095743,207.69507308095743,206.8460969443205 ,206.8460969443205 ,205.86038667029248,205.86038667029248,204.97671679730257,204.97671679730257,204.3767192391986 ,204.3767192391986 ,203.7338647126586 ,203.7338647126586 ,203.18488735507364,203.18488735507364,202.76244009477597,202.76244009477597,202.47264535582775,202.47264535582775,202.3216255622914 ,202.3216255622914 ,201.83183163730854,201.83183163730854,200.89305994775805,200.89305994775805,199.8583702812318 ,199.8583702812318 ,199.2093933306295 ,199.2093933306295 ,198.86041515907925,198.86041515907925,198.23388709670533,198.23388709670533,197.44001277662898,197.44001277662898,196.63185280040724,196.63185280040724,196.22981362031715
201.4481597294053 ,201.4481597294053 ,201.62571002721157,201.62571002721157,201.90121911001444,201.90121911001444,202.2195851612533 ,202.2195851612533 ,202.28489101791766,202.28489101791766,202.59509383707348,202.59509383707348,202.9950922091428 ,202.9950922091428 ,203.27060129194564,203.27060129194564,204.15835278097705,204.15835278097705,204.75835033908106,204.75835033908106,205.27467476833382,205.27467476833382,205.821611317898  ,205.821611317898  ,206.42773130006427,206.42773130006427,207.0318104742098 ,207.0318104742098 ,207.8726233787637 ,207.8726233787637 ,208.7236403234214 ,208.7236403234214 ,209.0971081912208 ,209.0971081912208 ,209.71751382953246,209.71751382953246,210.38281724430084,210.38281724430084,210.9766923783425 ,210.9766923783425 ,211.4175069108271 ,211.4175069108271 ,211.7175056898791 ,211.7175056898791 ,211.8399541711248 ,211.8399541711248 ,212.05423901330477,212.05423901330477,212.3909723367305 ,212.3909723367305 ,212.65015495536727,212.65015495536727,212.47872708162328,212.47872708162328,212.23995254319414,212.23995254319414,212.0317901250764 ,212.0317901250764 ,211.91750487591375,211.91750487591375,211.94811699622517,211.94811699622517,212.3175032479831 ,212.3175032479831 ,212.83995010129811,212.83995010129811,213.3930090749246 ,213.3930090749246 ,213.91545592823962,213.91545592823962,214.01137390521544,214.01137390521544,214.09096541802512,214.09096541802512,214.280760563956  ,214.280760563956  ,214.63382035154783,214.63382035154783,214.6970854001914 ,214.6970854001914 ,214.62565711946476,214.62565711946476,214.580759343008  ,214.580759343008  ,214.69096297612913,214.69096297612913,215.0358595316379 ,215.0358595316379 ,215.1481039727798 ,215.1481039727798 ,215.13585912465524,215.13585912465524,215.0848389241362 ,215.0848389241362 ,215.1521855888213 ,215.1521855888213 ,215.32157265454455,215.32157265454455,215.54402072880762,215.54402072880762,215.76034637900835,215.76034637900835,215.90524374848246,215.90524374848246,215.9909576853545 ,215.9909576853545 ,216.07259000618492,216.07259000618492,216.10524293451712,216.10524293451712,215.80524415546515,215.80524415546515,213.8215787592846 ,213.8215787592846 ,210.76648915220403,210.76648915220403,209.09098576715851,209.09098576715851,208.5807837619681 ,208.5807837619681 ,207.69507308095743,207.69507308095743,206.8460969443205 ,206.8460969443205 ,205.86038667029248,205.86038667029248,204.97671679730257,204.97671679730257,204.3767192391986 ,204.3767192391986 ,203.7338647126586 ,203.7338647126586 ,203.18488735507364,203.18488735507364,202.76244009477597,202.76244009477597,202.47264535582775,202.47264535582775,202.3216255622914 ,202.3216255622914 ,201.83183163730854,201.83183163730854,200.89305994775805,200.89305994775805,199.8583702812318 ,199.8583702812318 ,199.2093933306295 ,199.2093933306295 ,198.86041515907925,198.86041515907925,198.23388709670533,198.23388709670533,197.44001277662898,197.44001277662898,196.63185280040724,196.63185280040724,196.22981362031715
201.5930570988794 ,201.5930570988794 ,201.80938274908016,201.80938274908016,202.11346314417366,202.11346314417366,202.42366596332946,202.42366596332946,202.642032421551  ,202.642032421551  ,202.92978635247843,202.92978635247843,203.15835685080376,203.15835685080376,203.21141785934356,203.21141785934356,204.2216178296207 ,204.2216178296207 ,204.7991664994963 ,204.7991664994963 ,205.27467476833382,205.27467476833382,205.81548889383572,205.81548889383572,206.40732321985666,206.40732321985666,206.97058623358694,206.97058623358694,207.86446014668067,207.86446014668067,208.81751749237645,208.81751749237645,209.2215974804873 ,209.2215974804873 ,209.7991461503629 ,209.7991461503629 ,210.46036794908974,210.46036794908974,211.09301843552598,211.09301843552598,211.6297509449863 ,211.6297509449863 ,212.28280951163012,212.28280951163012,212.61954283505582,212.61954283505582,212.9195416141078 ,212.9195416141078 ,213.22362200920134,213.22362200920134,213.37260099471695,213.37260099471695,213.10933676003867,213.10933676003867,212.86443979754725,212.86443979754725,212.68484869172022,212.68484869172022,212.5624002104745 ,212.5624002104745 ,212.59301233078594,212.59301233078594,212.83178686921508,212.83178686921508,213.2256628172221 ,213.2256628172221 ,213.73586482241257,213.73586482241257,214.323617532392  ,214.323617532392  ,214.53994318259276,214.53994318259276,214.67463651196306,214.67463651196306,214.8481051937278 ,214.8481051937278 ,215.1766752850705 ,215.1766752850705 ,215.31953184652377,215.31953184652377,215.26647083798397,215.26647083798397,215.21953225350646,215.21953225350646,215.3623888149598 ,215.3623888149598 ,215.75014233890457,215.75014233890457,215.909325364524  ,215.909325364524  ,215.92769263671082,215.92769263671082,215.87667243619177,215.87667243619177,215.8889172843164 ,215.8889172843164 ,216.03993707785273,216.03993707785273,216.2338138398251 ,216.2338138398251 ,216.42973140981826,216.42973140981826,216.60115928356223,216.60115928356223,216.74197503699483,216.74197503699483,216.8338113979291 ,216.8338113979291 ,216.96034149521637,216.96034149521637,216.95217826313328,216.95217826313328,215.63789789776268,215.63789789776268,211.8542398272701 ,211.8542398272701 ,209.79710534234215,209.79710534234215,209.4685352509995 ,209.4685352509995 ,208.94812920570521,208.94812920570521,208.19711185406484,208.19711185406484,207.2195648121199 ,207.2195648121199 ,206.1746711054898 ,206.1746711054898 ,205.2175321437525 ,205.2175321437525 ,204.53998388085955,204.53998388085955,203.94610874681783,203.94610874681783,203.55631441485232,203.55631441485232,203.35019280475538,203.35019280475538,203.11549988236774,203.11549988236774,202.2665237457308 ,202.2665237457308 ,201.2012219588931 ,201.2012219588931 ,200.1685731003876 ,200.1685731003876 ,199.42367817280953,199.42367817280953,198.9583739440758 ,198.9583739440758 ,198.26654002503753,198.26654002503753,197.51552267339716,197.51552267339716,196.8379744105042 ,196.8379744105042 ,196.36858856572897
201.5930570988794 ,201.5930570988794 ,201.80938274908016,201.80938274908016,202.11346314417366,202.11346314417366,202.42366596332946,202.42366596332946,202.642032421551  ,202.642032421551  ,202.92978635247843,202.92978635247843,203.15835685080376,203.15835685080376,203.21141785934356,203.21141785934356,204.2216178296207 ,204.2216178296207 ,204.7991664994963 ,204.7991664994963 ,205.27467476833382,205.27467476833382,205.81548889383572,205.81548889383572,206.40732321985666,206.40732321985666,206.97058623358694,206.97058623358694,207.86446014668067,207.86446014668067,208.81751749237645,208.81751749237645,209.2215974804873 ,209.2215974804873 ,209.7991461503629 ,209.7991461503629 ,210.46036794908974,210.46036794908974,211.09301843552598,211.09301843552598,211.6297509449863 ,211.6297509449863 ,212.28280951163012,212.28280951163012,212.61954283505582,212.61954283505582,212.9195416141078 ,212.9195416141078 ,213.22362200920134,213.22362200920134,213.37260099471695,213.37260099471695,213.10933676003867,213.10933676003867,212.86443979754725,212.86443979754725,212.68484869172022,212.68484869172022,212.5624002104745 ,212.5624002104745 ,212.59301233078594,212.59301233078594,212.83178686921508,212.83178686921508,213.2256628172221 ,213.2256628172221 ,213.73586482241257,213.73586482241257,214.323617532392  ,214.323617532392  ,214.53994318259276,214.53994318259276,214.67463651196306,214.67463651196306,214.8481051937278 ,214.8481051937278 ,215.1766752850705 ,215.1766752850705 ,215.31953184652377,215.31953184652377,215.26647083798397,215.26647083798397,215.21953225350646,215.21953225350646,215.3623888149598 ,215.3623888149598 ,215.75014233890457,215.75014233890457,215.909325364524  ,215.909325364524  ,215.92769263671082,215.92769263671082,215.87667243619177,215.87667243619177,215.8889172843164 ,215.8889172843164 ,216.03993707785273,216.03993707785273,216.2338138398251 ,216.2338138398251 ,216.42973140981826,216.42973140981826,216.60115928356223,216.60115928356223,216.74197503699483,216.74197503699483,216.8338113979291 ,216.8338113979291 ,216.96034149521637,216.96034149521637,216.95217826313328,216.95217826313328,215.63789789776268,215.63789789776268,211.8542398272701 ,211.8542398272701 ,209.79710534234215,209.79710534234215,209.4685352509995 ,209.4685352509995 ,208.94812920570521,208.94812920570521,208.19711185406484,208.19711185406484,207.2195648121199 ,207.2195648121199 ,206.1746711054898 ,206.1746711054898 ,205.2175321437525 ,205.2175321437525 ,204.53998388085955,204.53998388085955,203.94610874681783,203.94610874681783,203.55631441485232,203.55631441485232,203.35019280475538,203.35019280475538,203.11549988236774,203.11549988236774,202.2665237457308 ,202.2665237457308 ,201.2012219588931 ,201.2012219588931 ,200.1685731003876 ,200.1685731003876 ,199.42367817280953,199.42367817280953,198.9583739440758 ,198.9583739440758 ,198.26654002503753,198.26654002503753,197.51552267339716,197.51552267339716,196.8379744105042 ,196.8379744105042 ,196.36858856572897
201.742036084395  ,201.742036084395  ,202.1012182960491 ,202.1012182960491 ,202.34407445051977,202.34407445051977,202.7216239343607 ,202.7216239343607 ,203.16856089090754,203.16856089090754,203.27264209996642,203.27264209996642,203.08896937809783,203.08896937809783,202.80937867925346,202.80937867925346,204.20733217347535,204.20733217347535,204.85018670001534,204.85018670001534,205.2848788084376 ,205.2848788084376 ,205.79712162164884,205.79712162164884,206.35018059527533,206.35018059527533,206.84813775234124,206.84813775234124,207.78895024991246,207.78895024991246,208.86037446081247,208.86037446081247,209.33180111360844,209.33180111360844,209.91343139952556,209.91343139952556,210.5073065335673 ,210.5073065335673 ,211.08281439542213,211.08281439542213,211.67668952946386,211.67668952946386,212.83790929327736,212.83790929327736,213.50933513210802,213.50933513210802,213.92565996834344,213.92565996834344,214.1583120827103 ,214.1583120827103 ,214.19096501104246,214.19096501104246,213.7930074469939 ,213.7930074469939 ,213.52770240429487,213.52770240429487,213.37872341877923,213.37872341877923,213.2583157455543 ,213.2583157455543 ,213.33790725836403,213.33790725836403,213.47464139575504,213.47464139575504,213.71749755022572,213.71749755022572,214.09096541802512,214.09096541802512,214.61137146331941,214.61137146331941,215.00932902736798,215.00932902736798,215.26443002996322,215.26443002996322,215.4583067919356 ,215.4583067919356 ,215.7583055709876 ,215.7583055709876 ,215.995039301396  ,215.995039301396  ,215.91544778858628,215.91544778858628,215.8399378918181 ,215.8399378918181 ,216.0440186938943 ,216.0440186938943 ,216.42156817773522,216.42156817773522,216.62564897981142,216.62564897981142,216.68075079637197,216.68075079637197,216.63993463595673,216.63993463595673,216.62564897981142,216.62564897981142,216.7378934209533 ,216.7378934209533 ,216.903198870635  ,216.903198870635  ,217.10319805666967,217.10319805666967,217.32156451489124,217.32156451489124,217.5419717811335 ,217.5419717811335 ,217.62564490998474,217.62564490998474,217.70523642279443,217.70523642279443,217.81135843987406,217.81135843987406,217.6868691506076 ,217.6868691506076 ,213.3399480663848 ,213.3399480663848 ,210.74404026397568,210.74404026397568,210.372613204197  ,210.372613204197  ,210.42975582877835,210.42975582877835,209.8705744310896 ,209.8705744310896 ,208.9705780939336 ,208.9705780939336 ,207.66037934460448,207.66037934460448,205.99712080768353,205.99712080768353,205.27263396031307,205.27263396031307,204.68284044231288,204.68284044231288,204.34406631086642,204.34406631086642,204.20120974941307,204.20120974941307,203.91753743452716,203.91753743452716,202.49305343603538,202.49305343603538,201.2767318556613 ,201.2767318556613 ,200.2971440056956 ,200.2971440056956 ,199.35837231614514,199.35837231614514,198.77674203022798,198.77674203022798,198.1930709362901 ,198.1930709362901 ,197.58695095412384,197.58695095412384,196.97470854789526,196.97470854789526,196.48491462291238
201.742036084395  ,201.742036084395  ,202.1012182960491 ,202.1012182960491 ,202.34407445051977,202.34407445051977,202.7216239343607 ,202.7216239343607 ,203.16856089090754,203.16856089090754,203.27264209996642,203.27264209996642,203.08896937809783,203.08896937809783,202.80937867925346,202.80937867925346,204.20733217347535,204.20733217347535,204.85018670001534,204.85018670001534,205.2848788084376 ,205.2848788084376 ,205.79712162164884,205.79712162164884,206.35018059527533,206.35018059527533,206.84813775234124,206.84813775234124,207.78895024991246,207.78895024991246,208.86037446081247,208.86037446081247,209.33180111360844,209.33180111360844,209.91343139952556,209.91343139952556,210.5073065335673 ,210.5073065335673 ,211.08281439542213,211.08281439542213,211.67668952946386,211.67668952946386,212.83790929327736,212.83790929327736,213.50933513210802,213.50933513210802,213.92565996834344,213.92565996834344,214.1583120827103 ,214.1583120827103 ,214.19096501104246,214.19096501104246,213.7930074469939 ,213.7930074469939 ,213.52770240429487,213.52770240429487,213.37872341877923,213.37872341877923,213.2583157455543 ,213.2583157455543 ,213.33790725836403,213.33790725836403,213.47464139575504,213.47464139575504,213.71749755022572,213.71749755022572,214.09096541802512,214.09096541802512,214.61137146331941,214.61137146331941,215.00932902736798,215.00932902736798,215.26443002996322,215.26443002996322,215.4583067919356 ,215.4583067919356 ,215.7583055709876 ,215.7583055709876 ,215.995039301396  ,215.995039301396  ,215.91544778858628,215.91544778858628,215.8399378918181 ,215.8399378918181 ,216.0440186938943 ,216.0440186938943 ,216.42156817773522,216.42156817773522,216.62564897981142,216.62564897981142,216.68075079637197,216.68075079637197,216.63993463595673,216.63993463595673,216.62564897981142,216.62564897981142,216.7378934209533 ,216.7378934209533 ,216.903198870635  ,216.903198870635  ,217.10319805666967,217.10319805666967,217.32156451489124,217.32156451489124,217.5419717811335 ,217.5419717811335 ,217.62564490998474,217.62564490998474,217.70523642279443,217.70523642279443,217.81135843987406,217.81135843987406,217.6868691506076 ,217.6868691506076 ,213.3399480663848 ,213.3399480663848 ,210.74404026397568,210.74404026397568,210.372613204197  ,210.372613204197  ,210.42975582877835,210.42975582877835,209.8705744310896 ,209.8705744310896 ,208.9705780939336 ,208.9705780939336 ,207.66037934460448,207.66037934460448,205.99712080768353,205.99712080768353,205.27263396031307,205.27263396031307,204.68284044231288,204.68284044231288,204.34406631086642,204.34406631086642,204.20120974941307,204.20120974941307,203.91753743452716,203.91753743452716,202.49305343603538,202.49305343603538,201.2767318556613 ,201.2767318556613 ,200.2971440056956 ,200.2971440056956 ,199.35837231614514,199.35837231614514,198.77674203022798,198.77674203022798,198.1930709362901 ,198.1930709362901 ,197.58695095412384,197.58695095412384,196.97470854789526,196.97470854789526,196.48491462291238
202.00530031907329,202.00530031907329,202.38897222697653,202.38897222697653,202.79509302310814,202.79509302310814,203.0583572577864 ,203.0583572577864 ,203.20733624330202,203.20733624330202,203.1665200828868 ,203.1665200828868 ,203.00121463320508,203.00121463320508,202.86856211185557,202.86856211185557,204.3114133825342 ,204.3114133825342 ,204.91345174865899,204.91345174865899,205.3195725447906 ,205.3195725447906 ,205.83997859008485,205.83997859008485,206.34405817121305,206.34405817121305,206.93385168921324,206.93385168921324,207.9318068113658 ,207.9318068113658 ,209.01139425434883,209.01139425434883,209.48486171516558,209.48486171516558,210.05424715295814,210.05424715295814,210.66648955918672,210.66648955918672,211.27260954135298,211.27260954135298,211.89709679570612,211.89709679570612,213.02566363118743,213.02566363118743,213.8256603753261 ,213.8256603753261 ,214.41749470134707,214.41749470134707,214.8154522653956 ,214.8154522653956 ,214.9542272108074 ,214.9542272108074 ,214.43994358957542,214.43994358957542,214.1215775383366 ,214.1215775383366 ,213.980761784904  ,213.980761784904  ,213.8787213838659 ,213.8787213838659 ,213.9174967362604 ,213.9174967362604 ,214.0297411774023 ,214.0297411774023 ,214.22974036343695,214.22974036343695,214.53994318259276,214.53994318259276,215.02157387549258,215.02157387549258,215.52973507266225,215.52973507266225,215.87667243619177,215.87667243619177,216.10320212649637,216.10320212649637,216.35422151305008,216.35422151305008,216.61952655574913,216.61952655574913,216.66238352418515,216.66238352418515,216.6583019081436 ,216.6583019081436 ,216.766464733244  ,216.766464733244  ,217.03993300802605,217.03993300802605,217.2746259304137 ,217.2746259304137 ,217.36033986728566,217.36033986728566,217.30727885874586,217.30727885874586,217.27258512239294,217.27258512239294,217.36646229134794,217.36646229134794,217.51748208488434,217.51748208488434,217.72768531102284,217.72768531102284,218.00523520184643,218.00523520184643,218.2256424680887 ,218.2256424680887 ,218.30931559693997,218.30931559693997,218.25829539642092,218.25829539642092,217.98074550559733,217.98074550559733,216.9419742230295 ,216.9419742230295 ,213.4950494759627 ,213.4950494759627 ,211.5868939765503 ,211.5868939765503 ,211.4073028707233 ,211.4073028707233 ,211.51750650384443,211.51750650384443,210.9624067221972 ,210.9624067221972 ,210.09710412139415,210.09710412139415,208.89098658112388,208.89098658112388,207.37058460565626,207.37058460565626,206.04814100820258,206.04814100820258,205.34202143301897,205.34202143301897,204.9501862930327 ,204.9501862930327 ,204.66651397814678,204.66651397814678,204.22978106170373,204.22978106170373,202.96448008883135,202.96448008883135,201.63999568335691,201.63999568335691,200.43387814308664,200.43387814308664,199.44612706103788,199.44612706103788,198.89102727939067,198.89102727939067,198.3644988100341 ,198.3644988100341 ,197.81348064442838,197.81348064442838,197.22776874246975,197.22776874246975,196.75838289769447
202.00530031907329,202.00530031907329,202.38897222697653,202.38897222697653,202.79509302310814,202.79509302310814,203.0583572577864 ,203.0583572577864 ,203.20733624330202,203.20733624330202,203.1665200828868 ,203.1665200828868 ,203.00121463320508,203.00121463320508,202.86856211185557,202.86856211185557,204.3114133825342 ,204.3114133825342 ,204.91345174865899,204.91345174865899,205.3195725447906 ,205.3195725447906 ,205.83997859008485,205.83997859008485,206.34405817121305,206.34405817121305,206.93385168921324,206.93385168921324,207.9318068113658 ,207.9318068113658 ,209.01139425434883,209.01139425434883,209.48486171516558,209.48486171516558,210.05424715295814,210.05424715295814,210.66648955918672,210.66648955918672,211.27260954135298,211.27260954135298,211.89709679570612,211.89709679570612,213.02566363118743,213.02566363118743,213.8256603753261 ,213.8256603753261 ,214.41749470134707,214.41749470134707,214.8154522653956 ,214.8154522653956 ,214.9542272108074 ,214.9542272108074 ,214.43994358957542,214.43994358957542,214.1215775383366 ,214.1215775383366 ,213.980761784904  ,213.980761784904  ,213.8787213838659 ,213.8787213838659 ,213.9174967362604 ,213.9174967362604 ,214.0297411774023 ,214.0297411774023 ,214.22974036343695,214.22974036343695,214.53994318259276,214.53994318259276,215.02157387549258,215.02157387549258,215.52973507266225,215.52973507266225,215.87667243619177,215.87667243619177,216.10320212649637,216.10320212649637,216.35422151305008,216.35422151305008,216.61952655574913,216.61952655574913,216.66238352418515,216.66238352418515,216.6583019081436 ,216.6583019081436 ,216.766464733244  ,216.766464733244  ,217.03993300802605,217.03993300802605,217.2746259304137 ,217.2746259304137 ,217.36033986728566,217.36033986728566,217.30727885874586,217.30727885874586,217.27258512239294,217.27258512239294,217.36646229134794,217.36646229134794,217.51748208488434,217.51748208488434,217.72768531102284,217.72768531102284,218.00523520184643,218.00523520184643,218.2256424680887 ,218.2256424680887 ,218.30931559693997,218.30931559693997,218.25829539642092,218.25829539642092,217.98074550559733,217.98074550559733,216.9419742230295 ,216.9419742230295 ,213.4950494759627 ,213.4950494759627 ,211.5868939765503 ,211.5868939765503 ,211.4073028707233 ,211.4073028707233 ,211.51750650384443,211.51750650384443,210.9624067221972 ,210.9624067221972 ,210.09710412139415,210.09710412139415,208.89098658112388,208.89098658112388,207.37058460565626,207.37058460565626,206.04814100820258,206.04814100820258,205.34202143301897,205.34202143301897,204.9501862930327 ,204.9501862930327 ,204.66651397814678,204.66651397814678,204.22978106170373,204.22978106170373,202.96448008883135,202.96448008883135,201.63999568335691,201.63999568335691,200.43387814308664,200.43387814308664,199.44612706103788,199.44612706103788,198.89102727939067,198.89102727939067,198.3644988100341 ,198.3644988100341 ,197.81348064442838,197.81348064442838,197.22776874246975,197.22776874246975,196.75838289769447
